ply
		format ascii 1.0
		element vertex 39099
		property float x
		property float y
		property float z
		property uchar blue
		property uchar green
		property uchar red
		end_header
208.787556 368.364888 1114.319480 148 156 163
265.402829 372.973228 1094.108555 185 195 202
165.766534 351.199588 1146.962710 132 143 157
262.767746 373.150575 1095.221579 113 126 128
-87.746664 339.576235 1226.718061 122 138 154
185.030078 361.598545 1129.968553 201 212 220
275.259543 372.740692 1093.135844 186 196 203
-28.768052 341.074306 1210.361676 151 173 191
-17.862276 341.829334 1206.700462 173 191 214
177.650983 359.510013 1135.072433 107 125 154
-110.892441 342.791606 1229.754301 165 180 212
-135.636205 346.123978 1232.778174 128 141 157
-82.786452 338.082131 1229.315780 108 123 156
168.766988 355.288324 1144.055484 154 163 183
171.845343 355.630269 1142.806311 152 161 174
256.538903 372.671433 1099.899678 208 211 225
71.729123 348.067414 1178.472569 170 189 204
97.154121 350.146079 1169.380959 137 167 192
258.804434 373.374212 1099.050335 184 195 199
-76.706411 339.681650 1227.362921 100 118 129
287.224683 375.764485 1089.517855 217 215 207
-114.701074 344.338637 1232.149885 66 90 118
-92.244589 341.267443 1230.229664 162 189 226
-60.569323 341.413888 1221.907259 194 209 228
-44.981743 342.227132 1217.080020 151 169 198
-104.569725 343.600362 1231.131385 102 119 162
-37.219712 348.717027 1204.568783 175 185 219
209.304531 370.898641 1116.828392 178 188 195
-25.284981 344.464097 1210.992370 186 198 216
-21.763279 342.981623 1211.663456 94 113 126
-11.439496 343.683423 1208.187828 163 190 194
-5.976078 344.256849 1206.009573 181 188 203
21.023622 346.006689 1197.063353 188 198 216
215.184810 369.736576 1117.475931 165 174 178
-110.366546 343.994564 1233.845201 91 113 141
-86.669498 341.040467 1231.445808 82 114 167
-32.661969 342.722935 1215.539143 107 124 150
-17.954358 343.495598 1210.961916 198 208 225
-0.593095 344.943170 1204.658828 179 201 206
9.628219 346.017670 1200.574398 162 185 211
17.450728 344.242599 1200.818238 112 149 201
27.414785 347.172503 1194.668502 203 204 218
219.723450 370.408077 1116.189053 177 186 195
229.796083 371.203467 1112.584853 183 195 199
269.690469 371.786953 1102.111800 190 202 208
-130.006330 348.245855 1234.181481 138 148 182
-117.680029 348.999585 1230.130463 120 130 177
4.224438 343.698804 1205.676279 173 191 208
31.088916 345.474236 1196.703702 145 172 209
38.921282 346.310865 1193.551602 117 138 169
42.995985 346.398427 1192.496102 139 164 196
55.316648 347.720686 1187.527280 203 229 246
197.023731 371.283482 1121.537671 175 209 233
204.951529 369.865582 1121.290606 35 43 50
14.480108 347.149474 1199.573747 146 171 211
65.962203 349.013845 1183.949775 127 147 172
75.084199 350.436584 1179.939236 86 109 154
77.408183 349.909311 1179.887037 70 89 110
84.294824 350.318879 1177.660174 134 161 205
87.568542 348.470743 1179.077062 149 162 178
107.545483 352.187030 1169.324612 185 205 223
117.997628 353.004955 1165.614279 199 215 231
125.505988 353.829661 1162.549653 162 179 205
128.325204 353.816172 1161.943049 170 188 195
133.947834 353.682895 1160.791756 192 206 218
60.481354 348.917290 1186.309268 147 166 203
72.836043 351.180165 1180.332501 112 132 149
93.156017 351.772208 1174.189929 118 139 154
98.376686 349.814680 1175.365705 89 112 138
102.250020 349.908853 1174.342524 176 197 224
138.243149 352.915452 1161.245700 127 146 167
143.310653 353.480785 1159.162644 164 187 202
149.253549 354.148012 1156.712619 183 197 203
154.446406 347.614432 1166.435134 206 216 226
182.655904 362.928799 1137.159255 131 145 164
244.782935 373.922984 1107.170862 230 235 233
262.444409 372.438172 1105.094785 162 174 180
-104.254298 346.693319 1232.522088 65 80 112
-72.414133 344.042101 1227.340818 159 181 206
81.490162 351.334731 1178.497672 95 112 138
112.880409 351.245858 1170.668832 191 212 233
158.894236 355.075456 1153.923740 165 185 202
185.711538 365.785736 1133.421433 150 163 171
194.215423 368.426691 1127.907404 102 109 136
234.237542 369.772818 1116.265232 168 181 189
-65.862917 342.952638 1227.718203 118 144 181
-60.154695 345.778740 1222.674247 173 196 212
163.412890 356.071030 1152.157052 120 135 161
168.756210 356.672246 1149.945074 67 78 86
-123.457432 351.262274 1232.789149 208 220 230
-53.274258 344.337790 1223.576217 177 194 233
-40.936786 345.215883 1219.311381 180 200 231
-34.952076 348.057545 1214.156214 136 177 216
-135.416078 348.864782 1239.606367 122 127 148
-31.452806 346.306738 1216.348945 159 188 249
-26.627541 347.713344 1212.940234 186 213 239
-109.380740 350.994239 1231.108853 86 99 121
-98.312432 346.863262 1233.589593 138 155 194
-10.095465 348.272586 1209.208545 133 158 220
-4.648998 348.835609 1207.020951 139 171 207
1.300375 349.452747 1204.627736 152 181 226
6.553168 349.640378 1203.123960 167 202 222
12.512254 351.066568 1199.820611 171 194 220
37.320963 351.812850 1192.485140 148 184 238
215.141956 370.808667 1122.413320 129 135 142
-112.863940 351.141832 1232.693615 105 121 163
-91.678092 348.010402 1231.173624 124 136 142
15.694049 351.085014 1199.598778 131 161 244
23.280421 351.688532 1197.059576 197 222 242
27.692524 351.983989 1195.355157 187 219 238
43.665683 350.775884 1192.823630 153 185 228
49.253306 351.029001 1191.132719 167 188 209
55.771435 352.800428 1186.279466 148 176 210
61.266946 354.481206 1183.511850 140 177 233
67.719178 354.830306 1181.459316 184 205 233
-81.860749 346.854312 1230.934358 141 155 177
72.001386 353.608022 1182.581142 144 162 191
74.452357 353.538763 1182.146344 134 177 240
87.727286 354.630876 1177.284691 160 185 217
123.551490 357.531254 1164.244879 142 166 188
127.277526 357.936607 1162.711476 193 217 239
210.950181 372.479843 1122.490460 210 226 232
225.735093 371.802163 1119.423706 123 141 142
-75.896225 347.946244 1228.757003 143 164 191
82.722784 352.737446 1181.648923 61 72 92
94.057649 355.719646 1175.049076 68 87 100
98.835135 353.823280 1176.157660 48 63 109
103.664543 354.349329 1174.169050 147 173 203
108.465317 354.546991 1172.747935 144 159 185
113.722411 357.276141 1167.850254 186 203 229
131.145287 356.388724 1164.483104 159 182 228
134.393811 356.746131 1163.139377 201 221 238
140.846917 357.460340 1160.462875 159 189 238
145.918404 357.700433 1158.908176 186 212 255
150.311557 360.000304 1154.919005 177 201 229
159.527161 358.894588 1153.796852 184 207 222
164.663507 361.265397 1149.510359 185 206 238
-119.980627 349.732781 1238.853178 156 164 187
-108.389831 348.245421 1237.722594 113 136 198
-86.699202 347.767477 1232.563585 147 150 164
154.166878 358.790020 1156.119256 146 158 176
171.708233 360.607160 1149.970313 152 168 211
-81.472923 346.640852 1234.372695 130 146 153
179.696781 361.680934 1147.243216 164 179 205
-32.763006 350.520919 1217.645550 167 186 199
-102.165481 351.921622 1234.949550 109 128 201
-76.211843 347.764802 1233.349501 159 173 195
56.785949 357.792317 1185.691382 163 174 201
188.000355 365.661922 1141.257531 224 235 227
-114.195435 350.552171 1240.376640 152 163 191
-69.083679 348.982730 1230.670756 161 187 204
13.291116 355.147751 1201.186224 110 130 177
200.575983 377.204234 1123.748046 200 214 226
266.873855 373.741399 1111.383958 157 163 176
272.082973 376.775076 1105.499089 192 199 218
-63.752087 350.019344 1228.707955 182 195 209
114.552017 360.812773 1168.259119 206 224 231
195.319500 371.205886 1133.615957 116 124 147
150.804920 361.870966 1158.152361 164 189 233
236.416420 374.977149 1118.530890 143 161 172
-122.071666 352.599154 1243.541094 151 169 192
-44.320061 349.997002 1225.354237 188 203 219
-37.413122 351.205414 1222.715408 141 149 172
-26.360150 351.961666 1218.864441 126 147 179
-20.533956 354.752710 1213.694129 136 165 192
-15.981005 352.658966 1215.270638 175 192 213
211.575997 374.106237 1127.531078 183 188 191
-138.690870 349.725472 1251.762646 120 138 203
-108.168117 352.102481 1241.157890 131 149 180
-95.467961 352.252395 1237.387720 139 151 193
-9.987775 353.418034 1213.605334 149 171 196
0.889917 354.535253 1209.158183 141 169 186
17.252391 355.523271 1203.678194 150 165 181
69.047902 357.089662 1188.063729 139 148 151
261.245402 376.299574 1112.280673 145 150 153
6.124917 353.022647 1210.598805 99 122 144
12.193005 355.253330 1206.108022 120 140 181
23.145477 356.632175 1201.402282 103 125 166
28.911411 357.229465 1199.032326 116 140 176
38.159693 355.331792 1199.215407 134 162 222
44.793413 358.198962 1193.686717 110 131 176
49.964193 356.235900 1194.927802 129 155 179
56.035584 356.545479 1192.994026 91 115 133
61.663492 357.471974 1190.084551 111 137 177
72.613690 357.967458 1186.706639 154 175 196
226.953349 374.171561 1124.777022 125 132 135
251.440272 375.989401 1115.956119 147 157 164
78.420645 356.917457 1187.208075 146 171 197
83.073355 359.578667 1182.476937 100 127 141
88.440824 359.823165 1180.815836 86 108 149
279.166852 380.583742 1103.241523 166 186 203
93.727571 358.738364 1181.499222 109 130 158
99.158605 361.142973 1177.020558 172 186 204
103.481518 361.605428 1175.215211 185 208 224
108.216257 359.652198 1176.571155 135 161 207
116.326078 360.211850 1173.728497 153 171 224
119.166009 360.520470 1172.535953 158 177 215
123.825258 363.153979 1167.819683 160 181 182
126.706589 361.024050 1169.922204 165 189 213
129.974891 361.380702 1168.547190 165 186 194
136.345889 364.193464 1163.116578 192 209 218
196.287287 372.678787 1136.273535 224 235 232
140.226382 362.685007 1164.868008 148 160 170
241.502361 376.630004 1119.776627 175 188 196
-74.524333 370.548713 1218.845488 157 165 205
159.406839 364.665674 1157.931135 171 191 208
163.871283 365.158492 1156.036961 176 193 212
218.876845 375.228969 1128.376437 206 218 228
-79.153305 354.264467 1235.430126 122 150 210
173.248183 366.381333 1152.669772 156 177 204
217.150003 375.805661 1128.660925 234 243 240
222.593096 374.407299 1128.967634 130 142 142
231.836429 373.491826 1128.228124 130 145 207
-126.747994 351.721618 1252.054496 104 120 163
-99.314584 353.575417 1242.402938 141 157 194
183.377312 367.691534 1148.963271 137 153 159
284.654224 379.423605 1106.618305 105 151 222
-130.623525 352.278118 1253.066886 149 157 194
-95.007222 354.500755 1240.843827 167 178 206
211.974202 374.222625 1133.573761 183 196 198
-72.367110 354.250203 1236.028048 149 158 215
275.780358 374.487595 1117.432039 127 136 139
-113.502366 354.518678 1247.291476 147 163 192
-109.728394 352.263233 1249.333751 117 121 146
-30.021608 345.944792 1241.590864 159 181 209
290.668094 375.286720 1113.165297 176 187 191
-136.828983 350.960093 1259.070224 133 142 180
-89.653060 353.935483 1242.773656 141 162 200
-20.758891 358.575274 1218.449510 142 163 190
48.627360 356.045840 1205.078350 131 168 220
122.803561 367.020942 1168.968905 168 199 244
-103.416173 353.896433 1247.144449 144 153 187
-31.453158 358.722683 1221.733071 158 179 217
72.643408 365.925329 1184.579513 144 170 200
103.977346 366.146323 1175.888074 155 179 207
-36.962111 358.675418 1224.162160 149 184 218
60.483346 354.776293 1206.845149 153 178 228
68.977261 363.931908 1188.994908 156 180 216
91.114487 366.110091 1180.931397 153 178 222
252.342896 378.423741 1121.224452 145 164 177
-120.736131 351.906551 1256.961485 145 159 201
-76.166831 357.296327 1237.953151 181 192 219
22.023038 357.873477 1212.363562 172 181 215
-95.723421 356.674222 1244.747445 158 176 217
242.368506 378.588772 1125.068268 160 177 186
280.624094 381.654530 1110.597658 125 153 188
88.402056 367.643990 1181.800469 156 183 233
232.687612 378.303557 1128.761130 133 155 183
-132.526869 352.072460 1262.977403 117 138 199
-64.919775 357.358424 1237.372003 159 175 218
197.426194 374.087932 1144.620979 181 192 206
-52.862430 358.691684 1233.213986 153 166 210
40.177280 364.960621 1199.995984 172 190 221
-92.575506 355.148700 1249.761234 155 169 197
-59.181202 355.846567 1239.722846 168 187 208
-24.435462 360.956604 1223.498073 158 180 198
109.123354 368.296659 1177.745026 170 182 206
114.342286 370.927758 1172.749333 159 180 211
119.995933 369.139078 1173.664830 176 199 214
264.369811 380.420465 1119.313239 154 163 176
293.395556 377.546945 1116.144853 140 160 218
-8.489779 362.718417 1217.608400 196 214 221
94.911156 370.018249 1179.971066 203 220 233
-135.147960 352.696121 1265.670017 151 154 152
1.643216 361.745455 1216.980546 155 168 182
248.120728 380.179120 1125.391606 151 171 189
270.664621 379.840685 1119.780341 187 196 216
-13.458703 361.072537 1222.831063 177 191 220
9.397367 365.193349 1210.992310 157 182 226
34.928847 364.645153 1204.905919 202 214 232
258.132036 379.226224 1124.756098 159 171 173
-139.601838 353.730799 1267.116650 149 157 197
-79.062068 357.604619 1245.738473 168 181 227
-35.242250 360.462105 1230.167123 172 187 220
46.318758 365.996227 1200.792281 181 196 235
57.482618 366.821049 1196.649025 175 194 227
238.757014 378.430163 1131.694051 180 196 209
-123.188811 354.978129 1262.092498 183 191 214
-69.936868 356.026568 1246.449938 148 155 175
74.014315 368.401732 1190.877270 176 193 206
78.960826 368.911886 1188.774765 183 200 219
-97.309163 354.997092 1255.923532 129 138 148
84.221541 367.540966 1190.026960 149 168 189
-99.824326 357.895946 1253.469138 160 168 175
278.432066 382.605075 1117.432235 125 134 143
-127.754346 354.278630 1266.727801 151 163 197
-111.832641 355.427508 1260.840637 136 148 176
130.675570 372.222681 1172.459218 175 196 227
283.447204 381.681367 1117.928843 152 150 149
293.303981 382.991183 1114.094644 142 151 164
-46.318401 358.563040 1240.867546 163 185 227
287.836697 383.651582 1115.988172 173 191 192
-17.913496 361.249587 1231.115663 177 200 215
204.427663 377.779319 1147.613249 190 196 209
-6.136655 362.977606 1226.204888 155 172 185
78.094120 368.997793 1194.966236 126 144 185
214.554005 379.103124 1143.708022 203 221 232
222.197435 379.366835 1141.394316 156 171 180
272.046729 381.474108 1124.669981 168 178 178
20.747741 365.210265 1216.727344 181 193 233
33.911252 375.221389 1194.561958 167 185 208
240.016420 379.541481 1136.811914 158 183 203
-40.346683 359.039707 1242.754191 154 175 196
16.014976 365.244755 1218.868093 183 204 232
42.276830 367.278346 1208.807220 172 187 226
158.990018 375.827102 1164.999505 176 189 227
253.432815 382.952784 1129.165660 176 187 191
-125.258679 353.352632 1275.003341 143 154 184
-82.245405 359.483455 1254.220909 159 174 190
-34.478574 360.168011 1240.371456 159 184 240
53.652152 368.643946 1204.601396 177 192 218
76.266284 368.100198 1199.124999 165 182 209
259.807011 381.890178 1129.603804 199 207 214
262.145336 382.150822 1128.560724 176 186 204
263.992810 379.325285 1132.595007 186 195 204
48.181950 366.446244 1209.990047 179 205 211
-142.925201 351.992735 1283.540079 140 145 178
-116.291412 356.149199 1269.734486 163 169 204
-93.333486 357.602740 1261.513135 141 153 181
26.944875 365.766064 1217.422588 150 168 199
-127.196284 356.023664 1273.753056 143 153 163
-49.956267 360.921240 1246.035191 178 187 225
126.701864 373.752908 1180.620611 195 210 226
-76.515009 360.061628 1256.302720 211 223 233
-4.201799 362.618799 1232.955904 171 204 250
151.509154 373.938032 1174.292227 158 168 178
200.825353 377.859249 1155.085470 187 198 206
209.701884 380.580450 1148.833603 183 202 209
288.440505 378.120698 1131.160511 129 158 195
-61.062933 359.535388 1253.553676 179 193 229
234.949251 380.993957 1141.962824 157 172 205
112.131728 372.259160 1188.978171 176 196 214
-56.217604 358.456887 1255.537344 161 179 210
-43.419574 362.011956 1246.911659 151 160 164
142.356365 375.099114 1177.363302 167 181 209
250.025299 383.112835 1136.251246 156 171 180
277.832123 379.104198 1134.751666 157 171 190
-104.809090 356.062040 1272.942077 143 152 165
-91.950726 359.197687 1265.101642 171 183 201
-32.132887 362.944278 1243.549658 163 168 171
-14.583779 364.908660 1236.711564 166 183 204
-8.985273 365.484700 1234.266873 154 168 187
176.402496 378.619887 1164.496457 181 187 198
-0.999136 363.923413 1235.265996 175 196 224
38.775713 369.206901 1216.734507 168 188 235
70.379320 369.896976 1207.743261 160 177 204
293.489518 386.589856 1121.970197 221 239 246
11.115268 363.685770 1233.879051 189 206 215
22.528051 366.740866 1226.436326 182 197 229
80.989105 370.900164 1204.330440 182 198 215
90.957427 371.957912 1199.902421 162 186 228
196.570219 379.731717 1159.475997 207 219 229
288.611092 380.310942 1133.693461 147 164 185
-125.799354 371.622677 1254.645306 114 128 151
238.763384 383.471443 1143.088865 163 187 207
-142.241061 357.264904 1286.884668 114 128 140
-116.952467 357.952190 1280.254999 104 126 167
-110.185172 356.889731 1278.575601 126 145 188
-125.341855 367.444751 1265.132000 130 143 187
-99.044970 358.130875 1274.685093 145 161 184
231.552854 381.957110 1148.688462 190 203 211
-123.129675 357.654429 1283.529373 126 138 180
-102.838169 360.961740 1272.589983 154 167 189
-86.787617 359.500190 1270.263806 116 133 184
-74.804975 362.555710 1262.683057 149 161 189
76.024804 370.654922 1209.212522 190 207 226
221.095483 381.590921 1152.919318 187 201 230
-91.934806 359.934752 1271.873250 136 148 190
-64.648642 361.492835 1262.217777 132 151 196
143.516203 376.235207 1183.117889 172 198 234
155.568348 376.941199 1178.819231 175 201 238
266.679777 432.483251 1046.723391 172 194 219
-81.002139 361.169429 1268.012659 144 142 154
-69.705464 361.915928 1263.815195 148 163 196
-54.000553 362.731199 1258.404392 107 141 195
294.222579 384.255026 1129.957474 110 127 160
301.636698 390.471660 1119.099185 168 189 197
-59.013149 363.148715 1259.996767 110 132 174
251.639860 383.377609 1143.981480 152 168 175
278.548766 385.282871 1133.740549 130 134 152
-47.848341 364.440627 1255.935221 125 151 191
-20.010452 366.175509 1245.758283 139 167 198
-37.468315 362.849956 1256.412021 154 170 186
187.510802 381.628274 1166.072911 187 201 207
207.119217 381.157916 1161.139521 174 185 193
-25.339552 367.070768 1247.635451 183 198 217
-13.951922 365.298152 1247.087887 176 187 209
226.770048 382.996220 1153.767380 186 200 199
236.745151 384.343377 1149.703764 170 181 201
247.341957 383.216728 1148.271727 133 149 161
22.998158 366.617369 1236.570765 167 180 206
257.938867 379.297485 1152.238699 152 171 186
262.143182 384.552672 1143.029539 235 244 248
266.480728 385.043309 1141.015006 173 182 196
45.544075 371.392774 1224.029441 172 183 213
-114.040619 366.042895 1277.456341 115 125 143
62.221295 373.020183 1217.854257 213 223 241
-96.742215 367.872655 1270.785135 114 126 166
17.462209 368.362954 1237.963828 173 184 212
29.356642 371.453230 1230.154759 171 193 211
39.415622 369.639680 1230.049115 159 174 200
77.061964 374.475543 1212.447294 178 198 223
294.342658 383.262306 1138.518034 170 177 192
86.503313 373.540694 1211.913394 168 187 225
-110.379938 393.065752 1228.393681 122 142 197
69.833755 372.948363 1218.302722 138 156 179
72.914031 373.275601 1216.901035 157 173 189
-69.766017 368.775275 1264.660942 138 156 179
300.042275 388.819601 1130.214295 212 221 225
-25.218406 369.746174 1251.631736 177 193 205
100.147019 376.292751 1206.430372 173 195 213
-126.751197 366.669599 1285.440430 92 113 168
-107.572544 369.898207 1275.501903 138 150 186
-75.168217 370.248126 1266.679438 130 158 188
176.872238 380.839600 1179.462091 172 187 206
-85.672586 372.317335 1267.624423 134 146 186
-58.499731 372.061539 1260.107860 143 160 193
208.196602 383.972157 1166.535366 172 186 204
19.387489 375.079140 1234.585611 63 74 88
204.340803 384.066699 1168.338688 191 207 219
-48.070204 373.431435 1257.131416 132 145 191
247.118150 387.652450 1151.582152 157 177 202
299.086008 383.489533 1143.400661 159 174 193
155.455681 381.515394 1187.706551 188 195 204
213.974369 383.847221 1167.377487 144 157 171
223.812388 384.665755 1163.299809 96 115 123
-95.083219 368.938895 1279.169816 133 129 141
238.577640 386.281076 1157.427691 126 144 155
253.191799 382.315312 1159.578231 130 149 164
257.227778 387.530574 1150.279306 148 158 176
268.142215 383.000073 1154.336313 161 172 194
278.749022 381.169123 1154.000331 151 157 176
-64.417180 374.177317 1263.329127 135 139 157
261.969520 388.595135 1147.984673 146 160 172
273.731779 382.315906 1154.492859 184 190 195
287.071636 383.231110 1149.371288 92 110 151
295.482291 383.477821 1146.669242 168 180 204
7.530590 377.253803 1238.986889 169 189 224
280.776176 390.398891 1140.673501 123 122 142
-114.441461 374.888032 1278.220183 101 126 182
-31.419993 377.428030 1250.840972 152 173 204
16.816032 378.396759 1235.504873 162 183 211
290.680716 389.759868 1139.438227 139 147 176
194.769317 387.001440 1172.177245 182 200 217
-53.241186 377.440413 1258.724409 124 144 179
28.774585 378.225262 1233.953433 162 180 209
50.719232 381.612509 1222.741181 158 180 205
61.191304 380.250955 1221.673782 147 160 186
-119.341872 376.441128 1280.011889 107 114 171
-42.225261 378.696955 1254.576781 143 145 153
82.585073 382.370459 1213.115637 176 195 222
93.024152 382.838686 1209.522682 152 164 188
298.926070 393.700076 1133.449204 170 184 207
-99.519123 381.260889 1265.215346 105 130 172
2.991887 375.759058 1246.799660 148 173 207
113.606753 384.910906 1201.230028 184 198 217
185.020653 388.108433 1175.573171 153 169 182
102.491368 384.592889 1205.797858 130 165 228
-75.229374 378.584923 1266.820748 90 103 165
12.623883 381.554856 1237.137472 148 160 164
173.918161 388.255999 1180.210859 187 199 199
23.917051 381.849514 1235.380217 154 173 178
45.119939 382.497315 1228.055007 168 183 215
56.166938 384.157722 1222.999951 148 157 177
87.958755 385.849768 1211.410553 178 199 220
246.553258 393.215044 1153.737326 170 173 177
294.204846 397.091114 1134.706091 154 166 194
-94.244617 376.991614 1279.454999 90 96 131
-77.446905 359.820651 1311.642389 115 124 162
70.195147 405.628393 1177.321316 149 169 187
77.129753 386.429067 1215.256617 146 161 177
223.119323 394.242750 1160.739969 227 243 242
114.059363 387.724695 1204.212794 128 148 173
261.564109 396.143912 1148.002976 130 146 199
-125.887968 382.556039 1282.807981 96 121 155
118.915275 388.765566 1201.941730 192 201 205
139.261380 390.298578 1193.556986 165 172 167
271.805197 397.521377 1143.567188 148 161 175
280.961869 396.299427 1142.688952 134 150 203
-99.730132 379.254009 1281.346271 93 117 201
-70.287387 384.476705 1265.610958 130 141 185
186.528668 394.345584 1175.198454 167 188 215
-81.055113 384.735874 1269.100498 111 115 126
-52.873609 385.961484 1259.218846 155 164 191
299.439478 399.106790 1135.184541 182 189 192
-57.806409 386.385682 1260.836182 131 138 147
-42.485912 387.144508 1255.263788 128 139 169
227.773017 396.455462 1161.220365 185 199 211
78.195222 390.851082 1214.933123 205 218 226
-109.219569 384.864175 1279.894211 97 119 155
276.777742 392.388889 1154.951995 173 187 206
3.490847 389.444693 1240.840272 178 192 211
275.851723 401.352929 1141.693463 96 102 109
291.753210 394.590112 1147.949342 125 142 181
-74.950476 388.016562 1266.804559 97 120 165
-47.364981 389.534378 1256.387104 141 157 203
12.740347 390.560092 1237.270308 150 162 202
56.192592 391.192067 1223.398012 164 181 207
24.023882 391.872926 1232.740543 149 165 208
44.925426 390.934925 1228.040620 159 176 197
34.651824 391.085713 1231.586664 157 174 195
266.320003 402.157754 1145.552548 136 150 156
296.599061 395.989719 1146.586013 140 154 172
-32.536042 375.320110 1284.274991 140 151 208
79.004572 403.408843 1195.636516 127 151 187
-113.255669 390.732088 1278.646939 123 136 180
119.021670 398.047190 1198.206185 191 213 238
165.938431 414.567551 1192.714251 179 193 211
301.477240 397.639386 1145.550876 186 193 208
-91.400112 391.563730 1273.571795 106 115 129
-53.662955 393.624099 1259.157418 93 125 191
18.406968 395.435430 1234.947757 130 143 195
93.959577 412.549275 1175.541457 118 127 140
-68.346603 393.504410 1264.549692 128 134 177
39.507916 395.354369 1229.508518 167 181 204
72.604276 397.356752 1216.475516 197 218 233
290.153125 405.681213 1137.991542 145 158 174
29.138389 395.210196 1233.746267 142 143 157
81.793118 403.530796 1202.785567 131 148 175
61.099112 397.080291 1221.273298 156 171 217
294.725357 406.434483 1136.204594 142 152 162
-81.597101 391.687400 1273.186292 122 133 191
-48.124465 393.396385 1260.608692 129 138 175
-35.249003 396.279953 1252.245564 120 140 165
-41.214085 396.600038 1254.374210 100 134 194
113.457928 408.307486 1184.757828 143 156 154
199.941459 404.983487 1168.621168 155 171 184
247.101175 406.137186 1152.553211 69 101 130
124.152626 400.582338 1199.298130 138 160 196
276.395673 406.823259 1143.298320 47 54 69
191.387151 403.502265 1175.124898 176 198 223
265.758800 408.367355 1144.907830 176 190 208
302.627414 412.549471 1127.157626 187 204 207
273.698226 431.768101 1093.811281 86 96 103
-8.520834 398.492331 1245.169589 105 119 148
7.997807 408.489822 1218.274984 139 158 173
7.620673 399.370124 1238.936280 150 157 176
87.904729 402.025808 1210.461717 143 156 200
161.758135 402.620854 1187.114559 156 168 178
256.635037 408.715361 1148.670191 148 164 181
284.849434 408.776277 1139.956187 131 143 177
301.465218 410.021414 1132.856263 143 149 156
-14.910401 398.758345 1247.527663 120 149 194
117.720002 402.372955 1201.700277 110 139 196
293.252472 411.784791 1133.309104 152 161 181
299.199019 410.303189 1133.871064 187 193 200
232.294695 408.261778 1158.265362 180 192 196
77.917422 405.238317 1208.872966 129 141 177
213.561952 407.636990 1165.709176 108 127 142
252.393133 409.266777 1152.795588 103 115 133
-96.373860 399.792088 1274.797208 77 74 89
280.351097 411.444238 1141.593483 120 127 144
-85.008811 400.984975 1270.358013 114 128 181
-74.790166 399.213043 1270.179856 106 122 158
-64.387413 401.792265 1262.968421 117 140 185
18.750092 401.982811 1236.804446 152 169 195
270.406107 413.284056 1142.369162 152 162 172
53.228177 398.384431 1233.143305 144 156 192
57.254903 405.205745 1220.273316 119 147 171
298.318000 413.850344 1133.576276 131 144 170
-41.456898 401.969077 1257.562476 126 137 167
29.103373 403.659209 1233.382458 146 156 190
63.573495 417.642463 1192.300749 145 171 218
-30.697586 403.159548 1253.247073 140 163 208
-20.369924 402.340448 1252.216312 131 140 203
124.274831 408.363124 1198.275905 138 152 201
261.149703 414.913751 1145.489502 166 166 166
-2.013476 396.327097 1261.281699 128 148 179
102.986589 385.724458 1254.353663 148 162 215
275.953073 415.412364 1142.434009 160 175 201
12.037599 408.184836 1236.527798 151 165 184
-61.719459 407.225740 1261.512525 109 134 190
23.156516 403.608596 1242.063163 126 153 187
34.500785 407.947254 1230.854449 146 158 182
298.333555 407.720732 1149.945408 166 170 195
96.605469 410.042447 1209.071148 140 154 177
44.961050 409.689377 1226.489844 125 143 190
279.237033 420.941861 1137.616541 156 173 199
271.506301 419.893134 1143.148259 122 128 147
288.420801 422.642021 1133.338951 120 136 143
297.827772 422.880178 1132.250576 124 139 195
261.635797 421.754645 1147.007111 90 116 133
271.725927 412.410706 1159.606308 165 184 197
273.974036 422.497780 1141.872691 139 153 181
289.806716 414.035463 1152.828882 125 141 178
129.736775 420.059472 1194.653541 118 140 192
301.086339 426.060096 1130.360026 62 88 134
-91.841472 405.456375 1289.417122 157 159 190
124.947316 417.889820 1202.989223 86 136 194
-77.801045 411.212975 1274.013822 153 162 175
-72.059237 403.846923 1288.828364 139 147 176
289.156129 428.448785 1134.541248 125 139 161
256.114335 426.943847 1148.503282 136 155 168
298.388911 421.832840 1149.520528 83 101 154
265.700578 430.728893 1143.422677 189 211 222
-70.725770 327.881750 1076.527859 123 144 176
-56.529603 327.319466 1075.788289 158 182 202
-49.417246 327.750020 1073.975673 134 140 147
-43.785238 329.186637 1072.243213 162 171 185
-39.336839 328.052567 1072.303405 137 162 202
-27.477529 316.473182 1078.397123 122 145 183
-32.478055 330.189365 1072.401792 170 176 213
-92.962350 326.918680 1088.508378 158 165 182
-87.605031 327.882276 1086.575464 115 133 186
-76.552038 327.356972 1084.755443 141 157 194
-60.219102 328.138482 1080.809533 147 162 188
-65.358400 327.445119 1083.029230 161 180 218
-49.583974 328.338763 1079.098455 122 123 133
-38.629850 328.926201 1078.590042 181 197 220
-114.075237 326.385915 1097.208690 123 136 162
-26.400368 331.171226 1075.317319 142 159 198
-87.255056 327.956702 1091.606607 149 166 205
-91.762552 329.405789 1091.854164 161 160 180
-74.745503 330.071020 1087.820707 164 186 198
-86.160547 329.636798 1093.960661 167 180 212
-58.979099 330.022290 1088.027928 157 166 199
-46.048946 333.435946 1083.303953 159 174 193
-90.619988 330.274834 1098.922939 146 155 189
35.248436 334.486784 1069.320047 151 170 208
-73.225949 332.583973 1096.784127 154 171 222
-94.469804 332.707034 1106.359979 171 180 207
-89.927874 333.068801 1107.544326 152 162 202
-53.466103 337.864594 1097.928767 105 120 166
-47.603534 338.640689 1096.484181 51 70 103
-39.064248 333.213421 1097.862723 122 134 162
-60.905008 333.989035 1102.340794 101 129 193
-82.471685 333.816524 1107.385374 95 116 178
-93.211283 335.926175 1110.340993 94 119 181
158.534961 338.931576 1055.396969 166 181 197
248.198846 354.985292 1023.937774 154 154 172
-82.675817 326.918559 1117.807189 132 148 191
-75.336447 330.272324 1113.160666 145 164 201
71.854456 332.417139 1080.015812 97 119 131
-23.043954 328.031750 1105.340538 123 166 233
-13.977735 330.690843 1100.959466 169 181 191
-58.885289 322.079043 1118.817330 112 134 182
-48.915841 327.462677 1111.942900 110 134 188
-102.530100 330.211975 1121.415061 42 52 69
-64.884160 328.253760 1115.580847 174 193 208
-82.869510 325.974483 1121.850092 145 164 209
147.430216 332.011425 1067.492535 225 242 255
249.643941 354.222341 1026.868466 160 171 169
-92.956056 326.211447 1124.987566 116 148 189
-87.123066 327.613056 1122.477459 111 120 147
72.455550 328.546916 1087.728708 142 151 185
77.121416 325.414162 1088.732541 190 202 208
-108.727268 330.049760 1125.328692 28 41 55
25.485564 326.263296 1101.009790 141 143 151
-12.992003 324.246889 1111.822603 48 35 33
14.547354 326.568958 1103.612628 57 30 33
20.433277 327.738614 1101.303344 63 41 30
-52.312628 322.314240 1122.936152 48 49 45
-40.891332 322.987061 1119.472350 105 106 120
-26.763252 322.776997 1116.255140 42 30 36
-113.879381 330.299973 1129.373815 49 61 73
-94.323243 321.226453 1133.955729 45 50 81
128.552969 328.603441 1079.833383 19 13 0
251.393026 351.242376 1032.684065 137 147 165
-54.591609 318.877724 1132.070472 65 39 22
-43.024024 314.643330 1132.755158 47 25 13
-84.667746 318.622952 1139.521705 72 46 40
165.522250 344.706561 1063.140248 170 181 208
-80.780634 316.879860 1144.303982 88 69 72
247.312942 359.742849 1034.639222 168 172 177
-34.270530 319.486260 1132.893368 66 45 23
-20.668971 321.433965 1128.045566 80 54 38
7.809863 324.377496 1118.912723 54 28 11
-46.666546 321.401025 1134.686398 74 44 19
-88.957590 316.079417 1150.461838 56 34 6
-90.173924 318.258742 1149.600990 53 30 14
158.952228 341.859908 1073.599286 210 231 255
-25.704403 322.810726 1134.185014 66 30 22
-85.402149 318.872629 1151.941571 76 55 57
153.024599 338.311821 1081.338287 171 195 225
151.068494 334.277136 1086.511482 230 239 236
191.269811 352.871625 1059.479804 191 201 201
174.409945 351.981694 1065.747902 185 195 242
98.322719 330.492776 1105.464927 47 36 22
-38.505527 323.893717 1143.135150 77 55 49
155.483799 340.437584 1086.918160 187 198 218
120.959967 332.246850 1103.619515 27 22 13
-80.945947 320.885507 1161.830741 158 146 140
-36.821079 324.042379 1149.301144 80 66 48
-23.420331 326.110790 1144.180168 84 62 44
-84.764478 321.319648 1167.123511 77 56 35
-76.023672 322.099599 1164.975256 73 44 30
76.995560 331.790674 1120.816690 19 12 3
168.851687 350.434584 1081.274232 181 199 230
159.907837 342.510341 1094.031284 221 225 230
110.717582 335.957250 1114.581503 38 32 27
59.614770 331.830938 1131.216357 66 39 25
201.358851 356.819824 1072.983771 166 173 176
-98.997241 323.753759 1179.171910 151 145 134
-72.992413 323.320896 1173.523410 51 27 5
-57.816575 325.255532 1167.978778 151 146 143
252.815079 359.349719 1060.469089 120 121 105
186.969818 359.480431 1076.876810 151 173 214
-107.032592 320.440461 1187.238993 59 43 20
-80.388235 326.724362 1176.490254 92 93 84
236.955010 359.264959 1068.081980 160 191 224
160.963238 346.824128 1099.539667 158 172 191
-69.833217 325.285906 1177.080245 185 176 166
2.929210 331.907271 1153.591373 146 135 127
-97.261799 323.671729 1186.607712 65 46 39
231.811621 363.752494 1069.588875 82 108 145
-90.328580 326.010884 1184.689568 95 79 72
157.296952 340.958259 1112.528617 144 154 164
165.567492 350.481033 1100.123912 175 194 231
261.649992 361.947244 1065.248933 190 190 190
-76.122072 326.468137 1183.683597 70 43 33
169.499709 347.916582 1102.578214 222 242 253
-62.254740 325.500962 1182.038145 56 32 12
34.365273 332.521522 1151.740093 51 31 13
162.252784 346.063484 1106.975422 151 173 178
-31.613217 330.122620 1170.599405 61 36 34
179.103090 355.552291 1094.260434 168 192 220
228.267356 361.955918 1076.444352 178 187 197
263.025067 362.079378 1068.851564 193 204 218
-79.531326 326.798100 1189.266722 57 36 21
-71.134547 327.420905 1186.536731 62 42 37
158.230687 343.076095 1115.104834 184 202 219
177.833514 353.758680 1099.093604 147 152 153
162.596934 350.258955 1109.042338 209 224 240
41.661453 333.613916 1155.014341 48 26 8
94.077456 338.372457 1137.344026 55 48 39
160.293799 349.018901 1109.863493 157 192 236
-80.804842 328.300210 1190.848422 66 45 48
-10.666274 333.253356 1168.567126 55 47 34
0.953989 333.685419 1166.079372 72 52 47
259.722362 364.976031 1070.292846 165 182 191
268.838022 362.587370 1070.424811 179 191 201
-74.557131 327.459930 1191.750759 92 76 59
167.167282 352.900013 1107.650854 178 199 244
-44.160075 328.083600 1187.589166 66 43 27
-30.276203 329.990068 1182.705939 51 32 17
-16.871213 331.914913 1177.241589 72 52 34
10.874012 333.228967 1169.075379 59 43 26
35.827750 332.714752 1163.039792 60 30 5
76.686257 338.123666 1147.874524 88 73 57
127.789566 340.369216 1133.120525 11 0 0
269.672330 364.316024 1072.390282 124 152 182
174.810887 356.822670 1105.772643 154 186 239
179.015559 356.270058 1106.026778 212 228 245
260.334169 364.486942 1077.929841 181 197 213
213.620030 362.161172 1092.267256 155 161 168
275.468356 367.104346 1073.122375 164 171 174
28.116917 337.377961 1167.350491 161 150 146
165.888456 351.506157 1118.518281 139 151 153
205.973948 362.651631 1099.087703 214 226 236
270.581756 366.738388 1078.847035 168 183 192
-71.348905 330.693641 1204.459151 53 43 49
37.932065 333.971348 1174.831112 60 45 13
66.184924 339.550226 1162.756091 52 29 14
210.734644 363.347281 1100.331865 233 245 247
184.314597 363.614724 1107.635460 153 177 231
249.659140 366.350524 1088.616489 166 179 193
33.268264 336.830951 1179.715358 52 38 32
20.950179 337.460977 1182.798182 60 44 37
73.505251 340.386461 1166.312047 64 42 31
279.424090 358.349472 1095.313488 196 203 228
264.215564 369.061469 1087.342936 123 121 90
249.584292 366.617776 1096.353323 189 197 197
-19.933831 331.910844 1207.225048 53 46 49
193.593963 366.017735 1112.699051 127 151 187
167.047464 354.362598 1139.648310 184 201 214
0.991407 340.067668 1199.632455 158 175 201
215.390103 366.999620 1113.340934 166 180 192
141.301066 347.240354 1156.001927 173 186 230
250.287309 369.061274 1102.741601 237 246 250
207.635988 367.167983 1116.339847 185 197 201
-23.187918 341.914699 1208.145454 157 181 201
-11.594515 344.521808 1201.998853 176 191 217
-6.306780 343.706723 1202.414283 192 210 227
21.300904 345.125940 1193.585681 154 175 203
38.656517 346.304387 1187.721523 171 190 203
66.771649 347.345959 1179.251703 163 180 201
180.732464 361.145846 1133.244547 180 199 234
16.167819 346.487528 1193.981313 169 188 226
35.437087 347.262640 1188.115491 166 192 239
61.744557 348.657864 1179.657922 155 178 204
77.345179 349.991644 1174.053044 142 175 224
87.740298 349.963179 1171.404764 128 157 201
142.882076 351.080724 1156.354646 141 175 228
284.049792 371.258428 1096.616933 152 167 183
-99.924910 344.844450 1231.277639 69 82 120
-13.907367 349.126070 1208.384251 131 167 205
86.401940 354.929037 1177.331188 141 172 235
79.095455 356.378208 1178.047193 8 31 77
90.869170 356.345746 1175.082656 58 77 90
-55.250049 349.488407 1223.443568 160 184 204
-43.920115 349.481735 1220.432720 179 189 219
1.013543 352.650527 1205.403975 149 178 209
17.585751 352.107531 1202.585819 176 199 231
39.919465 354.700032 1194.175216 172 203 228
62.681419 353.820712 1188.322987 138 171 216
-133.190153 353.230878 1243.712823 135 159 201
245.331138 372.881980 1118.066529 150 162 168
255.399782 372.800774 1115.614635 173 174 188
221.768011 371.802953 1128.307360 250 255 251
68.785494 357.284623 1187.830616 136 164 188
34.912680 355.332650 1200.017252 134 150 196
291.835004 376.026629 1106.634887 196 205 215
-103.900620 352.775346 1242.563791 170 168 210
250.030543 374.075089 1124.069136 132 149 176
262.533456 374.458551 1122.961487 163 172 175
-110.424357 352.007963 1254.516296 130 137 176
-70.894585 354.979587 1241.599398 170 181 201
-104.278727 352.207738 1256.836947 149 159 193
-87.597007 354.101070 1249.797523 185 199 217
267.559364 375.991229 1125.130770 169 182 190
276.862453 376.111439 1123.147116 202 211 221
-109.055282 353.541829 1258.014907 155 171 194
14.944194 363.343304 1212.058637 162 176 204
26.049652 363.269154 1209.106802 179 198 219
-74.621500 357.849014 1244.645082 143 169 206
-91.863435 354.317348 1255.819699 153 170 189
-85.400944 355.743917 1252.936319 166 186 203
-74.305461 356.865634 1250.143537 151 170 205
-137.327404 352.079085 1276.596879 140 153 175
10.470774 362.571183 1222.361692 186 207 234
281.063359 378.027984 1129.798098 116 126 133
-71.658512 359.244496 1255.458039 159 175 204
-90.357205 356.345959 1266.543757 171 184 210
273.191214 379.157593 1134.456901 172 183 210
-77.147994 357.613269 1265.423902 156 162 181
-20.784468 361.171269 1244.617883 177 203 233
-3.483191 363.179338 1238.684262 174 195 226
288.789278 382.005143 1136.137850 119 123 118
277.406439 380.873174 1148.940647 170 179 192
-13.223430 385.575887 1250.460527 111 146 179
259.059856 394.045506 1158.330351 155 161 168
-65.724690 389.175409 1271.406010 87 122 172
272.601809 404.024218 1156.884620 155 172 181
-21.416220 406.541981 1253.712114 120 151 214
276.038076 416.737661 1157.998410 109 130 181
-224.660170 182.917438 963.559171 132 154 182
-237.916950 183.424893 964.288474 96 113 146
-230.315673 182.578591 967.513329 157 162 207
-192.331845 183.312784 965.835101 132 146 175
-190.552126 182.615152 974.898900 124 155 206
-199.319366 184.220392 972.823506 163 181 210
132.668407 198.790288 914.017434 198 211 203
-224.835808 188.333962 966.740616 157 173 209
133.821853 206.438759 898.248580 125 158 184
83.977070 189.193746 948.645947 126 123 102
154.561992 216.584225 871.825483 179 190 188
175.213840 251.904551 785.189157 173 188 184
-206.966361 188.509895 971.663093 135 158 203
-239.777565 190.706229 970.541030 119 145 191
-223.426819 188.293376 975.889179 140 152 194
-205.236674 185.793976 978.300938 128 157 214
-231.697601 189.733411 972.639646 121 141 198
-214.475666 187.479876 977.559051 130 160 217
169.516462 229.505008 846.209303 213 221 214
-140.531508 179.650012 998.839553 155 137 108
129.785151 199.278654 925.159694 170 189 226
160.414099 228.998912 847.776102 160 171 168
122.586365 195.664197 938.486618 162 175 183
125.216686 203.484891 917.789542 164 193 224
139.063536 206.813852 906.406963 175 187 199
-252.758117 190.036856 980.437691 131 145 204
143.431472 226.996714 856.949604 145 169 211
-96.488781 187.529640 978.990878 105 84 46
132.613065 205.811195 913.163203 162 176 188
-222.966598 191.576590 976.952988 104 121 160
167.371317 245.644228 811.641761 165 177 181
174.975157 270.355912 749.864956 178 192 214
-207.442097 192.547809 973.896944 125 152 178
161.111113 231.473921 848.998172 225 239 233
-206.396357 190.857225 982.802157 125 154 198
-186.764987 188.951004 985.251109 110 126 169
-70.109296 185.851690 988.397017 69 55 37
139.561604 209.224962 909.927378 111 141 176
-197.783035 190.131770 985.872349 175 193 216
155.867537 221.244896 879.495917 146 152 141
155.429057 234.171745 846.237228 179 184 182
172.630577 267.911292 761.065976 178 191 205
170.274843 250.670589 804.848672 143 147 142
169.432474 284.960708 721.007786 181 192 182
140.939701 220.259552 886.462286 188 213 255
172.049421 274.597634 747.612034 181 202 204
174.544556 280.220220 733.545488 167 188 203
125.544696 210.539149 915.481611 118 125 144
157.018361 242.826588 829.520045 142 150 149
-190.553195 194.918100 981.325388 147 168 213
143.388926 227.367529 872.506378 105 115 132
-205.058952 195.004333 983.298753 98 113 146
-203.692026 191.875755 991.274816 124 144 201
-246.700038 198.588894 980.608248 125 136 186
-221.027135 194.925632 987.381076 119 139 186
133.629240 210.484719 920.920620 155 174 189
168.800938 283.631872 730.182674 190 209 206
166.646382 245.884844 829.894317 130 147 160
-245.378563 198.235316 989.595157 148 155 188
-186.552239 195.867010 989.989976 127 134 167
-219.648911 194.850795 997.341498 161 185 227
139.659982 218.280534 906.463847 71 76 91
171.691568 274.834185 757.397238 148 170 218
-237.207478 197.757685 992.142176 118 133 189
147.712672 227.998926 881.291696 144 161 200
167.395716 259.148056 799.704152 148 156 156
168.954639 259.727183 797.013745 139 156 143
163.239820 329.160709 619.790386 178 190 196
79.696170 196.640618 975.102747 85 67 36
-150.690832 188.816888 1016.950596 106 105 95
-100.297959 187.426193 1015.020940 113 91 73
-195.270712 195.979955 998.322013 148 168 185
155.407247 244.146464 843.466187 133 147 146
161.047098 241.038229 851.229972 203 211 201
163.481364 314.164730 660.392526 167 177 201
162.662525 253.096727 821.346833 178 184 189
128.288990 223.279352 906.720734 115 140 174
133.331635 217.191905 922.382322 192 203 241
-226.917323 197.971030 1004.560202 143 160 211
-229.758972 201.241932 999.348314 164 175 203
169.247859 255.560305 820.785284 147 156 153
174.324411 277.042510 763.445401 162 170 170
-246.473110 204.280069 993.642810 144 158 187
-220.446801 200.539067 1000.815515 140 156 192
-197.711762 202.776509 992.117559 142 163 208
168.755340 305.876932 688.649035 136 143 136
-237.220252 203.616085 995.010856 147 170 216
160.541793 255.303428 824.295470 149 164 166
-190.148544 203.245419 997.285530 119 149 208
139.533109 226.950346 905.175580 72 99 125
-137.548408 195.389824 1021.373070 158 156 148
-204.974801 203.911701 999.580804 151 178 212
-253.331175 206.274540 1000.555358 110 122 162
-250.568905 203.747933 1007.327520 153 169 206
-227.207068 202.443287 1008.058180 153 168 201
-219.228739 200.948158 1011.764096 142 164 205
174.760487 291.343858 733.394070 159 175 181
170.811079 316.068847 667.307548 155 180 196
-236.968718 203.982200 1006.058560 144 156 198
-119.419663 199.270821 1017.012618 106 81 55
171.120177 309.871119 686.439745 168 186 193
133.723304 225.600568 920.767339 168 187 208
-203.484141 203.833153 1010.177431 156 174 203
155.609346 252.549838 847.207397 171 188 197
168.926054 262.658915 819.383474 193 206 208
-209.977376 204.764922 1016.822740 152 175 220
-201.049287 203.419350 1020.140768 135 152 191
-245.382806 210.348248 1006.534465 137 151 204
141.260021 231.396819 913.693286 194 215 200
-253.412921 212.195582 1003.535942 141 159 196
-242.492206 205.071235 1022.978793 127 150 188
-227.966017 208.302616 1011.415357 134 159 221
-135.898678 199.468399 1037.234330 107 90 64
135.844449 236.579646 904.220068 170 186 222
-217.539955 206.020433 1024.604441 147 168 196
158.765693 260.386893 838.999684 171 189 176
170.437803 331.653424 639.402887 124 140 156
168.100546 336.041191 626.676495 146 161 163
-235.584247 209.650053 1018.903455 124 153 204
-225.856366 208.532266 1021.594149 146 165 200
-218.161774 210.328199 1014.290346 143 170 197
172.739970 295.518234 740.392996 118 139 154
-227.187538 212.039325 1013.535083 150 164 206
-260.695140 215.261006 1011.518128 111 134 202
-243.975646 212.562330 1016.558454 132 141 175
-101.054932 205.152579 1030.582856 111 93 64
155.423187 261.198298 840.933346 187 207 208
-200.078527 210.338632 1022.574973 157 172 205
-195.863331 211.366101 1019.419081 152 188 228
144.108185 253.546020 866.947528 176 197 198
148.053893 257.097638 855.433640 149 182 201
172.209986 310.643200 702.847302 157 170 178
-178.586037 212.794850 1014.456781 138 144 149
174.951222 294.725973 749.164025 143 159 165
171.265186 287.935092 769.466729 145 161 168
-173.927109 211.380219 1021.992601 119 139 194
-185.581596 212.539335 1021.111536 135 148 192
-208.359800 210.925789 1030.719433 139 162 200
-116.344832 203.914098 1046.336276 119 85 55
167.194963 282.172275 789.471257 160 180 198
-171.854377 209.699698 1032.402322 83 103 160
176.372991 299.979754 739.980857 122 132 126
177.145260 317.619519 689.135883 150 179 210
-258.276358 214.226623 1029.421104 128 152 210
-225.684788 214.770008 1024.235953 156 176 223
173.159495 294.040553 759.244707 164 176 176
-185.410294 214.976802 1025.342825 139 146 155
151.704700 264.741891 846.210915 129 135 130
156.922563 261.717986 854.572816 159 167 166
164.391598 266.025850 841.917508 194 207 199
156.347726 356.002929 580.560278 159 175 181
-178.053893 213.877289 1028.180360 112 123 137
165.891044 271.869919 826.523119 194 196 190
-244.971925 219.042593 1022.248653 111 123 151
-166.616758 209.772159 1041.556241 98 114 137
-216.169828 212.751952 1039.297007 169 188 223
-200.600959 216.473018 1025.567425 133 160 210
-198.372174 213.516789 1034.155323 170 188 217
-265.349588 215.951459 1036.358973 143 156 188
-234.390506 215.947009 1034.721907 166 179 231
-219.651226 219.193867 1022.378446 132 143 201
-251.350758 219.284034 1025.724699 144 174 233
-175.161043 216.643902 1027.563715 150 159 169
185.483659 319.564844 691.244006 168 185 181
183.300247 326.289035 671.071261 155 171 183
17.824443 217.104490 1012.210618 161 185 221
23.709883 220.271201 1002.575803 155 179 209
168.877595 276.166108 819.407314 124 149 199
178.718446 312.207965 713.791033 157 170 178
177.430901 315.573254 703.115706 147 160 162
-189.774889 214.059638 1039.909065 169 187 216
-171.300580 214.956464 1036.252415 150 158 195
-128.715346 214.427456 1037.504824 158 185 212
11.100634 214.032174 1023.504403 159 180 212
165.893103 266.718230 849.662069 147 169 164
-142.213225 215.193985 1037.909616 43 61 124
-118.293707 209.320830 1054.178038 83 77 82
-1.346780 214.601930 1024.380849 151 184 253
144.269100 261.353284 867.804120 189 201 213
160.390615 268.812453 845.281186 174 178 172
-217.323666 219.630054 1030.659196 131 155 209
-127.054165 212.502313 1047.130811 155 179 209
158.518920 262.639409 866.263724 155 172 169
-241.391976 218.171703 1040.313637 167 182 208
-227.472489 221.104671 1030.716009 133 153 208
-208.440880 218.792439 1034.660352 150 175 215
-158.367181 216.545949 1038.685411 138 160 185
-141.561016 212.787906 1051.076610 192 211 254
177.445256 304.138641 742.828907 117 133 145
-249.606308 220.199645 1036.642816 119 136 169
-100.088168 217.806448 1035.663096 159 184 224
-89.886071 217.085159 1035.304492 147 177 224
-258.988466 222.469026 1036.285546 128 157 218
-184.665612 218.913213 1038.958145 179 200 222
-149.300880 216.907080 1041.081582 150 168 191
181.476899 318.104446 704.033112 105 133 167
-264.254397 221.973476 1038.086868 123 139 155
-156.957402 215.388295 1048.105468 111 125 147
-118.030441 213.778786 1050.833579 167 185 196
184.392823 329.104950 671.649954 153 175 186
-200.023430 219.875446 1040.902212 165 177 183
-135.154553 213.231398 1057.520827 140 163 165
186.957234 323.235327 690.784194 152 169 208
-147.854480 214.830008 1053.360565 149 173 195
-169.864637 221.221878 1037.129471 136 148 184
-68.142485 218.122713 1038.904946 174 192 193
-51.707146 219.105452 1034.999508 174 191 210
-218.744566 223.892797 1037.746835 172 190 213
-214.315258 218.237378 1052.824953 142 163 190
-122.173530 218.446238 1046.995344 178 197 210
180.941121 304.721395 750.379452 166 185 190
-233.747674 224.565860 1036.524935 131 148 211
-198.324335 218.829543 1052.166824 157 169 187
-178.416159 223.740780 1033.918840 127 144 163
-149.943003 219.802409 1044.398389 107 126 153
