ply
		format ascii 1.0
		element vertex 41146
		property float x
		property float y
		property float z
		property uchar blue
		property uchar green
		property uchar red
		end_header
-32242270235.554741 -29822280903.679962 -38884768850.933884 182 191 200
-7014565005.317272 -40406315654.852333 -24980373395.093826 96 132 168
-8249818223.067636 -24335478917.822121 -20226058883.427368 140 159 196
-8381187388.350444 -21709174620.732792 -19166044930.436264 43 51 111
-8242112987.692997 -22558347182.154064 -19440427695.039368 84 96 160
-9295965045.868710 -21467859098.383759 -19800407853.988678 40 61 83
-18485034619.461311 -23335000527.984680 -27107748568.840843 195 204 218
-10741350108.721485 -21648172082.501884 -21037845846.532970 155 169 197
-7903874023.812337 -25251766549.764320 -20666676364.054237 48 53 52
-6882377306.292875 -38318922362.778122 -24708204656.261650 72 83 140
-34024648742.851181 -31434466842.303509 -41533227595.485428 213 226 240
-22959504670.386929 -25970436771.121071 -31598148274.941738 144 166 202
-10285977788.905704 -21792477250.854240 -20975822422.115402 152 156 174
-9346539067.181833 -22339944873.521229 -20570607926.361046 122 169 190
-8550673015.330623 -22661349716.614677 -20115482637.467113 49 105 140
-10905511914.966660 -22331191172.719017 -22120956161.802681 149 156 176
-9234280989.334990 -23079239733.776554 -21257906938.488522 97 122 166
-28181277256.039696 -28810641733.679867 -37228082305.597466 168 182 210
-14205090357.152527 -22907523242.292454 -24877714451.979656 154 168 191
-26433793675.875717 -28203880252.426495 -35825109189.480057 188 198 216
-22153582287.348618 -26204217311.110271 -32052389138.171612 195 209 232
-7158847108.329500 -36113542960.500603 -25155324677.521263 86 115 166
-16843378065.971704 -23717303557.101585 -27254750019.885658 190 204 223
-10509745217.322281 -23281953078.147144 -22844635202.609440 157 166 203
-7002486452.606097 -41472033280.696632 -27494403945.935356 159 171 219
-30205400674.110203 -30596721276.078796 -40349186123.943489 204 215 245
-13993803163.733303 -23828554082.751129 -25916440929.855274 221 232 252
-25597891987.677162 -28337923214.084625 -36190427680.862610 205 214 241
-21478687401.824284 -26444650488.941898 -32431769552.203571 193 207 255
-18105689601.400833 -25071145156.639294 -29421455329.775856 185 201 255
-12052982282.891821 -23106048439.750431 -24134947497.897800 164 165 185
-15765726376.850323 -24085793265.814999 -27320696826.249207 160 168 191
-7279070078.974340 -41468428124.843506 -28133993991.274799 146 154 201
-7291880668.535569 -47368227857.332840 -30420897165.545128 170 179 213
-27925379791.278576 -29370130623.515148 -39266508017.662010 146 159 203
-13054862971.070871 -24277779509.680111 -25939039768.912323 168 169 195
-27096595286.127983 -29528994439.196533 -39583899468.812965 60 59 63
-14459416388.144075 -25382246619.853249 -28220133261.990528 177 178 198
-7600288809.457437 -36764304514.549744 -28166607696.904766 43 45 79
-14608049498.254749 -25959056006.899227 -29220097694.903778 170 172 190
-14759791273.254141 -26549881812.911087 -30245673327.903938 150 150 186
-7476935441.163847 -43636176710.648819 -32424430601.909328 123 152 219
-175983109.794137 91909447.216526 -177883830.919474 112 122 156
-176853599.448038 90614079.924879 -178190745.379156 99 112 158
-176488111.788831 91301340.544053 -178034710.607850 63 80 123
-178058810.145075 88572016.911842 -178629361.857176 70 66 71
-178502128.289813 88237544.851697 -178822159.570852 93 120 176
-178594293.364751 87937285.847164 -178764730.345514 68 74 81
-178424941.333398 88286221.817341 -178547159.900477 76 86 93
-178355145.841424 88598353.155227 -178602849.818870 92 94 128
-177558716.229626 90011133.198645 -178303578.712344 82 89 128
-177698232.042575 89724239.339113 -178267973.158575 90 94 113
-176677284.379925 91216304.830086 -177743111.868076 71 90 147
-179366229.746083 86675346.773717 -178821460.448119 100 101 152
-177941440.534815 89585460.622717 -178460435.502235 67 78 98
-178749883.139080 88217311.494756 -178758399.322977 93 94 90
-176596437.010323 91736138.132005 -177815381.823786 67 88 150
-177934574.556893 89124130.020041 -178170592.394584 98 106 129
-178984913.469196 87658383.330358 -178676027.051101 67 66 82
-178888141.800597 88147074.967250 -178716295.818522 78 83 84
-177663227.594524 89844091.168152 -178004487.957898 71 72 98
-178047980.549667 89418481.765402 -178193113.513763 153 168 177
-177977672.278870 89733261.081041 -178222120.577459 70 82 130
-178410819.748828 88965702.331735 -178347405.995305 61 65 66
-179213367.100308 87619964.971426 -178611860.377222 68 70 80
-178922979.764858 88088783.206235 -178445297.061787 68 74 97
-178649406.710144 88366637.861354 -178246890.399873 92 94 129
-178606569.985547 88561756.717426 -178285412.658419 127 122 124
-179078024.004437 87665274.810757 -178394685.224110 156 166 183
-177903479.884075 89805996.140553 -177989552.096045 73 88 137
-177521590.233779 90462640.864223 -177841238.221593 100 117 136
-178790314.262691 88110136.563005 -178220600.622507 115 109 98
-179603034.009040 87248881.975892 -178764426.010651 72 65 72
-179406315.199745 87365485.213240 -178577113.018253 81 79 108
-179605084.779785 86776546.182621 -178500400.123266 84 90 85
-179257397.630552 87370119.661244 -178359235.908665 78 77 81
-179047310.152950 87977296.257986 -178400330.751746 92 94 88
-178134922.597312 89223788.394453 -177886524.037913 95 92 71
-179849169.057977 86662448.740742 -178674176.678783 103 114 136
-179503998.792330 87257988.024151 -178536842.559714 64 67 65
-178459428.759578 88955991.818403 -178079476.735862 78 87 84
-178861963.032278 88548576.269487 -178230281.776646 69 64 103
-178489621.367953 89161103.111024 -178073958.303653 63 64 54
-179793132.279179 86699873.250915 -178436254.044497 80 87 90
-178675831.371807 88550265.402521 -177970498.867597 67 68 29
-178629165.890184 88882989.085824 -178035542.119425 63 63 39
-179100118.261876 87957980.577679 -178126112.490000 70 83 81
-179196944.936948 88317498.480631 -178418856.900804 75 75 81
-178981846.763871 88465395.735497 -178192609.289282 83 78 75
-179559976.232599 87231624.936223 -178259801.848992 102 105 110
-179456316.826641 87528473.445399 -178281172.409292 85 94 138
-178390650.479379 89369714.346017 -177838586.529258 94 100 111
-179827384.675746 87135824.827566 -178435570.588246 79 87 110
-179348537.230946 87563903.735679 -178051759.690589 87 87 87
-179309112.549125 87744134.910253 -178090261.300621 108 125 122
-179192470.847401 88230312.724738 -178150856.998425 107 109 110
-176265967.872667 90809147.966870 -175753123.200380 58 82 118
-179744400.964092 87186537.680321 -178205895.067806 73 79 74
-178520013.515632 88880395.915977 -177529774.989218 87 102 118
-179725049.736815 87385689.714893 -178242014.317088 156 169 183
-178579100.264288 88723641.100835 -177489006.998430 103 112 139
-176541954.468668 90091451.437416 -175616500.405763 64 84 131
-178700035.412206 88523390.296407 -177428286.551453 100 108 155
-176849162.789140 89942340.284733 -175846114.937051 76 94 155
-176816248.945836 90111641.610761 -175889446.243684 86 100 158
-178818295.721240 88242433.010131 -177393348.751510 151 162 166
-177460710.520127 89100297.666090 -175978499.013380 78 102 154
-177714949.421249 89147782.427231 -176243984.686163 95 99 140
-178437996.267570 88019828.075755 -176535467.102165 71 88 107
-177847964.209879 88789518.457592 -176185096.871907 71 86 132
-178558785.888829 87879978.447724 -176531510.224424 75 78 76
-179403533.611683 87061026.703670 -177137024.273306 138 143 152
-178619504.720509 87709042.495602 -176481746.790669 121 133 157
-178231179.033233 88476769.136698 -176386577.612159 89 93 146
-178720681.926721 87553490.093341 -176483372.376425 102 105 120
-178748229.380733 86964450.772941 -176052211.940208 59 66 86
-179261068.801885 86707278.267667 -176529773.753348 96 109 147
-178546307.900044 87261404.673506 -175863863.308085 97 107 137
-162032571.798942 79040142.034844 -150611963.638100 101 113 141
-178794455.859498 86385885.941394 -175675705.161930 94 111 144
-180207191.868717 85534636.375902 -176826700.071444 121 136 185
-178949639.751360 85691764.462184 -175242674.038508 154 161 156
-168201886.113707 78270109.826605 -156848214.464335 89 98 112
-171117202.081389 77878287.025991 -160186841.261834 119 123 152
-168749590.781204 77704600.488047 -157047137.566452 77 84 79
-182251190.534113 84190182.805855 -178366181.638257 97 117 152
-176382473.404281 76498629.609170 -165779027.547147 121 142 173
-182471356.135741 83783026.823569 -178303989.353381 58 72 91
-176878925.130407 76317072.105949 -166260565.498351 163 178 197
-162419149.699942 77756145.298615 -148687799.514959 107 114 129
-182559650.469302 83631450.994485 -178255584.435494 61 68 83
-182664550.369618 83497069.173855 -178270023.673755 98 102 107
-177560792.829309 75979234.288195 -166761682.182074 73 77 88
-159294589.156099 76631291.430082 -143544834.121594 107 118 146
-175443037.802006 76503751.226750 -164094943.303849 123 137 156
-183452526.739226 82309204.044315 -178451014.920661 110 122 164
-178408332.714247 74262263.795974 -166471733.720126 149 163 186
-175913877.321667 76193020.107124 -164419749.493703 99 107 137
-167484138.416471 77591468.878569 -154439611.981144 109 118 138
-168087390.608401 76993135.239943 -154749888.849980 64 63 59
-162823172.891745 77262011.584332 -148020050.304158 186 188 189
-174588275.649073 76269153.320134 -162398808.755912 152 160 167
-182087083.320441 81845848.306321 -176007940.620407 74 88 117
-171769307.506433 76776604.047809 -158852632.812854 121 139 176
-184550011.539185 80831532.694045 -178567987.325893 50 71 79
-182939549.239654 80349121.498811 -175995932.010755 113 127 146
-183123096.778831 80052375.703152 -176008847.596893 136 163 190
-177727394.966848 75050384.361408 -165103482.064861 95 105 115
-174030557.535667 75585254.168495 -160170974.814758 96 98 99
-184039591.102357 78923037.711715 -176214566.216164 169 183 205
-176349018.679419 75110727.810946 -162852028.691426 158 158 152
-184242732.701875 78583007.083420 -176225173.321911 105 117 135
-184564024.730358 78189804.522366 -176344373.807145 124 143 176
-182871267.379912 80504420.128501 -175409599.334484 33 48 57
-168937328.889924 75952432.961841 -153264116.472750 110 117 144
-183053061.164170 80103264.461562 -175274037.944366 16 22 21
-181652907.465442 79001091.640407 -172498759.687551 201 211 205
-183933036.422165 79268032.283290 -175849653.050692 147 151 156
-174939067.226542 75270102.419594 -160301315.930798 111 125 154
-185884029.800084 76619056.101896 -176773965.158777 103 108 117
-184274733.368898 78600948.226110 -175753457.950223 124 135 185
-174074825.210886 75480984.271625 -159083513.951041 105 113 143
-184408165.603732 78223833.658667 -175657682.391318 119 130 144
-183346107.050865 78721040.539540 -174451765.991775 175 172 168
-168732839.075527 75945842.565777 -152085447.755332 118 130 158
-182359689.372736 78024823.539461 -172402096.214777 107 120 152
-175729281.562998 74609444.387526 -160476340.503290 114 116 127
-185241271.503620 77021490.607279 -175750361.193202 109 116 143
-185508063.376888 76907386.598891 -175913970.814171 32 41 50
-182781261.151747 76933449.709453 -171879538.380802 163 170 185
-185585895.640065 76310782.177808 -175531892.599111 28 30 60
-184484245.526423 76196352.174498 -173810976.999262 82 88 95
-178083531.994093 74067899.374960 -162827588.629737 126 145 172
-175011313.369609 74526430.075656 -158690228.750457 116 130 148
-186538362.072364 75668844.518681 -176397276.258587 62 76 124
-185705977.657086 76088021.139866 -175456470.952561 17 23 36
-183607710.596976 76007506.034398 -172290306.040009 100 117 173
-170004809.413781 75099051.787565 -152143625.266321 118 122 116
-186680225.862296 75551612.353988 -176455066.047428 107 119 147
-183850142.966847 75738338.825735 -172376344.248767 151 160 194
-176506675.385097 74117429.055709 -160329786.623949 106 112 125
-176430118.370050 74500067.870878 -160476536.639943 142 148 161
-184119941.150690 75573836.696045 -172557696.002076 91 99 116
-182820430.250332 76864832.709483 -171581613.559530 76 99 115
-184220324.017713 75315814.347996 -172476520.094976 153 163 187
-184411195.408254 74838998.161590 -172323848.856199 80 96 138
-178617825.615161 73962961.016447 -162848688.170059 182 179 174
-169062769.224946 75010684.882355 -150144599.985744 43 49 38
-184892422.825475 74433570.578313 -172620622.883616 114 127 171
-183903517.507323 75706594.947497 -172064889.195736 100 121 136
-175831056.198702 74748750.766516 -159177650.380449 88 92 121
-185348722.811741 73827531.847031 -172662818.246620 95 117 189
-185791388.340631 73451867.473990 -172982160.354975 115 126 158
-183995347.322293 75222688.241877 -171572968.846316 183 192 201
-184488893.205839 74978659.491481 -171879128.153333 42 51 78
-186567225.254275 72364215.506607 -173073381.063137 86 108 150
-183931239.263945 75210392.936089 -171113622.685256 33 45 63
-183959850.395764 74645402.609135 -170744789.834934 62 80 97
-186770774.837694 71424210.412512 -172592161.828664 97 115 162
-186961721.831015 71488907.174915 -172815514.468763 50 57 76
-185195854.403372 74087232.289652 -172000084.956328 123 138 164
-177597757.616139 73719535.553367 -159941209.854789 51 53 84
-184263884.512442 73894977.225091 -170382546.076366 51 59 59
-178087903.329601 74017328.260908 -160712681.328591 62 70 99
-185454055.628731 73965935.130306 -172194995.264851 135 159 187
-178357360.732013 73293442.753643 -160578005.398223 87 93 98
-187282509.510822 71179089.044183 -172863013.051750 13 31 62
-185688284.227478 73836921.578607 -172408345.366301 120 134 186
-184434389.489969 73584270.304686 -170234069.202691 14 17 25
-188181151.826470 70465150.884852 -173598379.338186 91 102 122
-187422998.831429 70462275.755552 -172430117.572957 23 33 80
-186094243.164743 73130344.015323 -172371184.099670 80 96 139
-186270532.838249 72659819.266198 -172244901.295332 70 95 137
-186442196.619706 72720818.944508 -172499011.192804 76 102 139
-181585366.203590 73674563.286718 -165570454.829483 25 29 30
-187724782.094052 69888432.517766 -172227974.200160 32 39 48
-186941767.846730 71435782.895955 -172047803.487101 45 75 100
-183524421.346292 72236825.217795 -167194913.721791 80 105 147
-188105898.077868 69093345.348356 -171923918.359145 35 44 48
-187088165.987726 71154295.452594 -171943515.976072 9 33 53
-188379670.818907 68833328.198851 -172105957.708569 49 56 95
-187253184.913282 70819557.177345 -171827665.752075 13 13 53
-183981905.567669 71034480.248569 -166741063.037738 151 141 123
-173525382.929271 75998151.641635 -154630741.197881 48 49 47
-174275369.801984 76475710.022442 -155974091.783742 11 13 13
-183788475.044238 71694882.110181 -166485615.543436 73 82 116
-185801667.338290 69489890.827523 -167827612.766215 125 154 199
-186136371.035202 69288034.958596 -168066413.070076 108 136 171
-186046468.733629 69556874.467596 -168129746.034544 113 137 183
-185121727.264669 69954340.052672 -167058248.760742 87 100 132
-186339819.693022 69269027.784695 -168256926.059299 98 130 173
-186566539.444351 68673562.828833 -168088438.561118 104 129 171
-184279628.491551 71098206.720031 -166405341.375619 128 144 191
-186820274.680839 68444172.466675 -168266338.980251 121 147 183
-184402986.095524 70772751.407234 -166280532.162179 101 92 113
-183946145.849397 71792147.995844 -166311313.235503 83 101 148
-184750376.074157 70580978.642995 -166543764.340693 122 124 135
-187422125.746321 67945521.120418 -168655465.670990 65 75 109
-173670367.522775 77034648.014419 -154637276.868849 13 9 14
-188271832.908800 66314733.293813 -168601521.597947 43 48 97
-173733595.109597 76541952.125463 -154288281.115161 15 10 12
-185445218.822281 70381669.761276 -167263240.312284 62 67 46
-185680270.271479 69727161.068324 -167058916.552135 49 52 56
-184182378.794012 71439834.828212 -166057603.768695 90 111 163
-186202403.292319 69136959.173539 -167409590.347681 50 59 68
-184455296.045036 71140625.708005 -166213360.794106 94 98 122
-186537957.596632 68924521.433585 -167643628.406860 120 129 138
-184696683.885523 70419225.455829 -165967136.383260 84 93 127
-184992280.525903 70069846.693991 -166118173.890639 75 84 117
-187302396.365731 67790422.193520 -167810044.750236 108 118 166
-186133523.511241 68734030.324584 -166643992.677714 174 174 150
-185614464.078241 69563399.348490 -166529825.511646 61 64 69
-177655983.014466 75781663.649935 -159022844.199169 24 22 22
-183861979.279538 71072743.891207 -164838851.394742 110 127 140
-186481792.100858 68378146.998821 -166727647.536332 46 48 29
-184547980.254000 70930563.627144 -165662803.478295 133 156 194
-187076659.387160 67869832.870871 -167168163.196752 179 189 199
-186710339.797886 68514677.071510 -167063843.005520 65 60 62
-184810302.423996 70139066.914723 -165387553.954360 84 87 102
-188289870.181609 66691815.502393 -168033523.115022 124 141 168
-186871495.039126 68548779.606995 -167304245.573848 14 13 17
-185108182.483094 69776222.408590 -165531702.917417 55 67 85
-184986502.041943 70178832.324350 -165653676.638760 5 11 30
-188544504.746919 66068309.847049 -167870631.252553 80 90 107
-187361087.176375 67630898.661691 -167315179.219029 156 156 150
-185441333.323287 69631075.914714 -165810872.056086 152 170 193
-182837863.951285 72041065.030121 -163666667.736391 110 125 187
-185738310.378146 69265206.958124 -165951576.565250 77 77 91
-186007632.695423 69772628.034176 -166677215.061574 19 17 29
-186063426.926267 68912704.512732 -166072253.925067 71 82 112
-188027737.481486 67118210.301085 -167649875.641311 97 105 128
-173420818.890998 78312802.550716 -153829875.248652 87 107 142
-189567820.893063 64819856.939975 -168231063.081699 169 167 173
-189306632.456567 65512486.439559 -168368849.584320 177 180 185
-165536797.140320 80871270.171601 -143742156.362634 68 82 131
-185124176.455861 70458215.504846 -165501571.481144 101 114 158
-168543604.175145 79902818.970851 -147434515.459070 107 115 132
-176787692.411598 76840932.765954 -157425312.721554 73 69 58
-173265002.750032 78553406.752476 -153397357.708670 74 72 91
-185323682.648819 70071023.658988 -165288721.877670 102 108 145
-170911374.724732 78631314.121595 -149720067.296335 103 136 186
-186907953.943061 68506630.682286 -166385981.409761 121 123 134
-184840572.656223 71254905.646530 -165355674.219920 55 76 103
-184400797.533859 71047560.314164 -164599567.852854 48 63 96
-187638971.688037 67303006.901883 -166578736.992222 109 117 154
-184952001.570310 70093375.257889 -164587906.270392 82 103 141
-185161062.550375 70168634.504630 -164861680.856933 52 60 90
-173989190.495632 78727199.033622 -153999123.184584 108 116 153
-172779639.616626 78333808.306039 -151891455.224540 68 79 101
-186893558.891832 68204422.551940 -165801593.682784 37 42 63
-185972043.648571 69923911.038019 -165662060.117130 91 123 176
-185409989.099517 69894266.254508 -164724512.827827 97 110 136
-183595882.963464 72108820.836761 -163579572.340450 65 79 102
-187844420.689179 67251939.529737 -166340631.299751 93 97 108
-176093947.079171 76940530.110881 -155366368.712800 98 116 147
-185648146.389250 70028288.661459 -164945875.573681 0 11 41
-185982281.582427 69206888.944560 -164583654.143658 82 80 132
-181300475.376295 74043277.745688 -160971419.780236 117 123 146
-166645496.532343 80935441.460211 -143438941.284971 62 76 94
-184846568.220781 71156793.825288 -164188132.525328 93 126 172
-188016793.338542 66790618.376083 -165602854.667043 97 108 136
-183515986.648229 71937169.830429 -162482331.727081 82 85 90
-186042650.174874 69484473.645422 -164523765.422343 143 149 160
-177353410.099796 76327427.695780 -156136706.795655 77 80 95
-172266104.057058 79231502.092571 -150523553.618001 75 85 119
-186611617.821908 68843504.397637 -164905827.899438 74 94 152
-182300501.268791 72566069.946875 -160876581.259140 19 20 41
-185340067.926927 71287029.985967 -164772187.310103 118 151 184
-183788152.280964 71226749.303262 -162099042.411212 51 45 38
-182685824.472261 72366176.150734 -161195550.738500 102 99 94
-181749690.022962 73103197.718905 -160286202.801972 56 53 62
-185805088.513344 70189204.125907 -164231284.242986 117 156 201
-175295662.957341 77435617.988626 -153150270.419108 118 126 186
-184957425.603634 71198990.734900 -163596430.288350 132 143 181
-185129264.241481 71350936.449672 -163960034.413315 143 162 183
-181100540.823820 72957113.083907 -158466027.729172 58 57 61
-184824223.591157 71165993.129809 -163163768.504307 129 159 206
-185816970.896236 70674307.985265 -164269594.522586 147 166 193
-187136514.094327 68581720.439572 -164441387.304901 96 120 174
-168954713.497272 79697378.636081 -144311626.207012 30 25 26
-189063691.456184 64855426.830063 -164269665.227715 105 116 146
-188815362.710805 66001360.231373 -164889433.084824 124 137 139
-184138719.371550 70967633.710104 -161198379.841213 62 70 100
-185457206.048627 70508065.749181 -163040465.393771 86 109 141
-185352619.052918 70886863.237934 -163192097.605448 102 120 167
-174770536.810100 78297222.184652 -151910309.361121 61 57 92
-168498165.402568 81199382.580792 -144240996.989940 25 32 51
-185215006.329591 71738909.561041 -163457766.884100 125 137 165
-169376851.652318 80148059.174655 -144664547.928225 104 111 114
-188590896.043493 65606498.408284 -163575167.014933 173 180 175
-187136585.547104 68617479.594248 -163882668.622704 56 73 129
-185693839.592517 70109935.043382 -162766820.586625 108 137 174
-187503722.932567 68266908.048321 -164059139.724195 112 143 204
-183520812.434322 71737299.096815 -160229270.640976 79 86 105
-179704331.934798 75396596.419668 -156911255.673179 73 72 111
-186311150.763303 69949657.961483 -163238420.059499 151 165 177
-177919610.909529 75983601.581961 -154326636.366199 35 38 43
-186001274.506607 69807638.912992 -162442869.786544 144 164 189
-185164649.504876 71332117.242617 -162390371.337903 118 140 182
-189291918.455107 64981949.260204 -163471565.932304 115 133 162
-185527738.807061 70963190.753157 -162545893.940840 126 152 189
-187525239.937315 67691180.372820 -162944024.858723 116 149 195
-184536923.131239 71131982.826292 -160840228.460952 124 123 143
-166613579.075920 82146570.515393 -140927056.241244 58 71 69
-179358219.519051 75548819.293249 -155870904.133975 105 104 138
-187269977.263244 68149132.917601 -162714759.271753 120 134 157
-182774141.730166 72158930.246458 -158522387.992247 49 51 91
-177011307.268797 77787596.174364 -153833659.471040 116 146 171
-189093668.672825 64956817.686663 -162527397.831800 74 88 111
-188841669.674673 66178322.497390 -163248443.523166 113 118 127
-184663270.600890 70696693.591945 -160112097.070877 117 117 129
-189407494.172559 65319024.882918 -163293358.939832 149 167 196
-186258412.499919 69927525.800357 -162235170.116718 149 170 197
-185987683.819005 70225951.553639 -162005776.498399 135 164 208
-175456058.360158 78459392.501760 -151446400.884457 30 36 31
-185569310.481046 70565876.645754 -161358097.767550 122 150 180
-187693105.739536 67692776.654261 -162261077.410088 107 110 138
-187978368.707212 66882528.830516 -161923709.431123 137 164 208
-187448817.694138 68021111.912117 -162015801.310835 113 120 170
-182442157.330819 72501262.560997 -157331743.209376 117 113 95
-184972213.102429 70754874.763955 -159826258.535998 63 65 73
-185826801.347823 69755179.805569 -160418605.065221 149 160 192
-185740185.702571 70329364.293896 -160703667.505321 147 164 185
-185531057.861200 70146634.215735 -160228195.011633 143 167 195
-178855656.031208 76818377.243998 -154797725.383973 29 32 70
-187262390.368439 67877410.846164 -161052705.977364 164 177 199
-186390409.241162 69407305.240430 -160971984.644163 106 124 161
-186126246.786548 70357802.149885 -161392736.625213 117 141 169
-171986072.545427 82240368.441014 -148028598.973858 14 14 28
-180669493.885819 73765280.452185 -154703395.494511 112 120 120
-188989931.085964 65914394.854743 -161974584.174235 137 151 173
-173919946.064024 80733261.680777 -149687074.599192 26 28 46
-183091082.359556 72058845.574197 -157098085.527676 124 139 188
-179885642.977701 74564591.608746 -153766186.410940 96 98 132
-175429289.692940 80303677.123235 -151665413.419486 33 43 53
-183715798.226477 71644597.533218 -157694241.439907 130 133 131
-179222263.665302 75872246.697049 -153916438.049486 27 27 43
-186393109.412929 68507108.923934 -159202261.685266 138 157 200
-186136883.058439 69428861.533670 -159626130.667221 69 87 124
-185977183.647499 69378293.282699 -159251523.730055 71 81 121
-187075953.509163 67811463.968752 -159636948.532952 151 165 183
-186971550.600770 68167274.106692 -159792095.848489 133 150 189
-186725631.694496 68087795.280796 -159342373.118617 63 72 115
-186345901.162663 69438691.474009 -159957090.973468 77 83 112
-189395579.805120 64936864.236313 -160997273.863818 118 134 151
-187692262.978343 67043128.650462 -159988768.848985 103 122 165
-187560588.242083 66882309.408970 -159558623.782455 130 154 190
-189140918.862770 65805213.813605 -161288201.980802 110 111 139
-181593321.446561 73909116.551640 -155407819.824479 58 64 69
-181062212.995877 74252790.443605 -154624648.336118 115 135 170
-189234943.983399 65685518.955019 -160655319.276388 169 175 182
-189828057.547062 63996489.834224 -159971041.340036 108 132 130
-184412297.691301 70709529.151564 -156731876.693481 101 104 135
-188808042.462484 65908227.817948 -159935704.588479 79 97 150
-187479395.295243 67784066.966562 -159219632.863084 86 99 137
-186515375.710347 67986934.351143 -157716612.972046 31 33 51
-182911699.299865 72411858.315582 -155493862.768427 93 109 151
-181784681.233706 73583547.664465 -154528423.221412 93 111 176
-188422526.676423 66783923.348344 -159871257.193478 41 43 101
-189647846.679526 65231920.013912 -160203539.538463 149 159 183
-189327171.534779 65488323.382207 -159934479.916886 103 111 124
-187231909.993131 67687626.194898 -158219399.872596 68 63 60
-187926283.031177 66960449.711794 -158644733.694379 173 173 167
-184364446.375030 71483494.079275 -156499300.774552 77 86 124
-180968424.594702 73188381.486759 -152014314.974874 18 16 28
-189084310.089476 65995250.094192 -159670671.430873 67 81 134
-187206009.501955 67741700.007099 -157697053.170976 63 71 100
-186581229.153272 69032647.246276 -157912545.776565 47 75 146
-188532150.705615 66129093.564842 -158478410.250690 98 108 142
-187704861.471044 66771732.540154 -157582130.740724 120 118 140
-171734209.462887 85355792.568944 -147379302.656612 58 39 12
-189723216.227772 64435068.458587 -158880390.579787 151 161 168
-189449623.744665 65281160.760095 -159235052.335292 118 120 150
-188920568.298023 66376906.762313 -159328875.955026 81 88 138
-173074516.243906 83585731.509825 -147838747.901309 95 70 38
-190089424.477196 64283830.472359 -159142478.166981 143 156 182
-188043696.757219 66887031.048132 -157963320.060663 109 115 138
-177545646.829963 80592411.791802 -152534930.493280 93 57 27
-188320984.414367 67023185.755741 -158269567.325996 109 121 163
-187173508.075947 67208513.904792 -156319814.640419 64 75 102
-187124611.160655 68379679.811095 -157365218.878643 91 98 113
-186749128.253408 68064711.735977 -156362935.001232 43 70 120
-187415016.682431 67173994.759933 -156677728.358940 19 25 60
-188719281.129887 66055160.830120 -157715312.592963 117 118 156
-188193787.703696 67196372.507601 -157869956.536526 142 147 172
-185068872.054106 70601784.243292 -155533805.488639 125 132 151
-189913667.337447 64927065.005947 -158747796.914431 95 107 109
-189645297.552579 65184320.133083 -158469599.780445 146 159 157
-190262288.585551 64162203.654235 -158396147.822731 154 161 178
-188397495.429023 66775550.394825 -157521662.243443 43 49 84
-178943075.473686 78995719.520602 -152453416.246087 43 24 9
-190046062.499919 64710830.042835 -158021009.402611 110 128 135
-188925402.163102 66314894.373080 -157568003.892970 108 115 134
-188711916.293794 67020215.248360 -157908293.069665 57 65 94
-183608595.536891 72515105.143340 -153808887.002853 114 121 146
-187916854.746608 67955517.993063 -157062483.049506 136 149 205
-187264649.809880 68872391.160162 -156709322.686260 89 100 130
-190442054.854481 63583756.765822 -156904199.430113 97 103 144
-189214142.757816 66082738.993830 -157257263.434121 89 95 142
-189520867.462462 65207416.010053 -156800875.324779 98 108 138
-190163551.607842 63402414.946139 -155873880.497045 150 152 163
-187893319.592066 67988671.089848 -156499045.980758 111 133 168
-191048985.080940 61625540.203786 -155468770.828830 214 201 179
-185331423.009126 70265529.516197 -153845435.772155 134 140 175
-179637368.891854 79179463.958895 -152349978.715106 98 67 34
-188237462.313851 67443817.250141 -156052079.421613 104 115 159
-186209137.752844 69282500.034479 -154029418.838638 94 116 181
-175653973.914628 82510180.680261 -148243838.540200 96 59 25
-185632601.133410 69803858.961390 -153393610.065849 103 104 178
-188119874.908407 68136686.526615 -156370410.008763 134 153 190
-187737891.524438 67908803.728051 -155397826.099163 138 157 184
-183452403.239532 72802708.724181 -152107100.325046 116 122 145
-187179799.243255 69514590.606063 -155817147.881245 107 109 157
-188078558.963601 67972578.116277 -155751334.565198 184 201 220
-188402510.372581 68239486.549242 -156196000.047951 52 64 106
-186689698.866313 68919503.957825 -153485746.509014 116 157 190
-181861163.665942 77529777.993879 -153699625.954325 86 56 21
-178367376.296859 80536423.797032 -150177026.453333 77 47 20
-178050883.251337 81624999.099147 -150804286.674789 94 64 39
-188739719.725208 67189053.855098 -155580677.926899 135 151 187
-190480171.471853 63811113.738669 -155030718.363791 117 128 148
-187745007.886484 68565467.849761 -155025489.028831 92 120 207
-188156242.303969 68088700.218202 -155132925.634993 143 146 191
-186481744.341205 69576634.883328 -153323720.481172 160 158 178
-187701826.956980 69328983.225139 -155368882.981258 143 145 156
-190931921.920261 63004672.865236 -154448033.530412 89 92 106
-187211599.685862 68806834.389479 -153668246.698033 0 8 72
-181327801.356444 78661527.017692 -153057472.304932 99 67 48
-186508776.180219 70284389.184851 -153631138.126278 94 107 153
-174608769.956058 83620060.770283 -145307428.359471 53 37 20
-177312519.658034 81718538.386945 -148333263.804547 72 52 35
-177969568.264527 80248125.145640 -147862776.754465 54 28 4
-190674962.507689 63802793.662206 -154230803.647522 139 156 183
-188958703.856978 67965654.329697 -155705293.731241 88 109 164
-188885923.484201 68056353.510785 -155183557.978586 184 194 204
-190789900.259796 62873247.444436 -152579090.429106 161 183 208
-187557779.482717 68536830.182196 -152657724.870532 144 156 222
-187067803.113256 68754396.400860 -151819390.521986 74 82 111
-189463238.494094 67043339.961094 -154389465.520810 175 184 197
-188807311.232757 67975713.603543 -154050849.980427 151 170 205
-188378212.029289 67918739.004003 -153120844.741172 126 136 170
-190576177.131115 65042245.544124 -154052046.331817 164 173 193
-185768229.204890 71282945.168002 -151483480.441414 101 105 183
-182891756.070294 76126393.758082 -151470078.422887 92 82 72
-182492024.474063 77360452.769403 -152150109.107681 93 64 37
-190971823.527909 64440174.985220 -153560570.704293 104 113 140
-189954552.542169 66802965.785674 -153967641.394126 131 147 164
-189775898.313894 66676240.871480 -153397305.815243 156 172 185
-189680059.700466 67152884.061653 -153659406.756784 67 85 116
-189285255.523231 66998155.139794 -152663579.117834 118 138 179
-189108667.869820 67631114.483286 -153063871.852492 89 93 111
-188960731.614534 68166098.351642 -153404589.321949 83 97 119
-188773376.488507 68058872.357732 -152837976.055254 116 134 151
-188507338.329700 68202745.223383 -152519480.857010 111 122 136
-191133777.699734 64325170.749069 -152752704.643964 116 133 152
-182541203.149516 77544893.698046 -150952771.997365 108 103 94
-181665890.066781 79790658.634583 -151681478.135337 98 67 42
-180515042.460875 81287483.881933 -151016860.385349 79 45 21
-186305813.878269 70570205.556719 -149380649.626325 102 103 141
-183580939.350378 78101383.706966 -152951863.044142 98 65 39
-191304682.197377 64338362.907021 -151977385.414763 151 172 193
-190591354.720298 65670568.974062 -151777126.515773 139 140 161
-187111847.236736 69345098.727452 -148749018.640580 157 165 218
-189565633.552426 67233549.550285 -151275388.672401 21 23 33
-191757325.621203 63733738.555820 -151427389.497279 168 185 206
-191079226.318227 64639610.789566 -151011133.095555 141 147 152
-190086046.248973 66024467.847382 -150350059.412411 53 49 54
-184922526.940865 72726048.001587 -146876826.325043 73 89 135
-184324827.210778 75254872.163245 -148668631.111381 98 107 116
-191994866.042562 63305699.350503 -149844846.468070 65 76 104
-187853905.777950 69135769.325311 -148169349.821995 96 139 206
-190456582.220489 66655888.026653 -150447439.214824 123 122 124
-190271984.379316 66579295.275355 -149997196.085516 93 93 129
-189709821.764360 67058191.657350 -149158516.887672 140 138 150
-191794045.711355 64426638.753733 -149776770.270744 155 175 192
-187087715.955700 70976241.216255 -147827826.483533 94 105 149
-191150711.208335 66532721.560445 -150709379.912272 110 128 169
-179356948.912135 84445849.305591 -148116356.553359 94 67 41
-176949311.642158 85686098.004301 -144444246.626673 72 48 24
-185513830.853550 72877758.436704 -145977556.356806 91 97 116
-190369045.498919 66749953.568890 -148622197.945484 92 114 185
-191186418.142454 65957148.092808 -149214134.396953 122 143 188
-190429739.911683 66728065.395762 -147858863.751066 112 120 173
-182573774.981823 80272308.412247 -148612603.690207 83 105 157
-189608145.926264 68254820.230559 -147975561.080155 100 122 180
-191044547.084896 65763238.683594 -147697696.276752 100 95 156
-179423479.307796 84367767.320287 -146610503.036731 106 130 182
-178859395.484771 84874980.451149 -146027884.578750 112 144 209
-178215568.915326 84801239.221232 -144468487.909058 107 126 139
-181571272.741217 80760431.128370 -146076562.467418 85 93 110
-192300998.083502 64567389.338609 -147634317.266926 110 121 171
-191438497.692659 66157990.526214 -147764882.248959 110 116 153
-176113830.020003 87285277.609492 -141771343.032650 48 56 55
-181966711.362445 80634565.224300 -145787081.772425 66 76 94
-191407008.194309 67323590.766970 -148531890.786988 63 75 93
-192513881.158667 63957300.354040 -145940512.758876 100 123 149
-180917158.393410 80416133.406555 -142007818.475448 106 113 110
-179800073.829891 82077544.327544 -141510096.583932 104 116 152
-191834218.719076 66932238.928073 -148123537.735590 145 159 182
-192160126.795952 66195622.782407 -147521937.187260 168 177 191
-184404212.142135 75676524.425320 -142626100.777401 78 86 133
-183161792.996701 77285797.232634 -141897787.543424 87 123 199
-182320250.968665 80005217.914864 -143425760.889674 102 118 130
-191631049.539214 66942146.967515 -146286923.666558 106 105 149
-192364835.672454 64621949.150540 -144393530.876936 147 178 201
-181862139.200494 80128238.095281 -141435950.896033 105 106 144
-189319159.146830 70341992.312170 -144921390.075980 99 102 107
-188678757.394340 71076182.611476 -144477615.957649 154 167 169
-190878352.856477 68496315.343698 -145725884.369261 176 175 179
-192591546.965347 66335174.836085 -145591281.022382 180 196 212
-183629128.312237 78937205.330652 -142369427.193018 123 137 186
-180629481.139635 83021507.539672 -140609476.230550 100 117 168
-180556385.723784 84491968.701954 -142525159.127340 94 118 148
-183380143.675024 79923235.056160 -142277933.796897 93 125 191
-178184581.622184 85491564.143731 -137815164.475638 69 79 149
-192445475.795221 68393510.840705 -146465214.853142 101 109 162
-193979823.584561 64939484.860454 -144599278.657291 95 132 190
-192794940.949876 68863590.826842 -147571190.505475 149 158 171
-180799569.803264 83601483.182618 -139899577.956796 123 122 162
-191580044.526996 67604672.304380 -141118202.283987 100 109 123
-187503497.894466 74827890.846821 -142268221.065089 106 120 156
-191188833.988482 67873602.294889 -139729832.039548 75 105 170
-186290450.974998 77331768.545926 -142535081.347118 128 132 137
-193634818.159824 66891996.119516 -144287341.725527 121 131 155
-194345490.252816 66775007.674855 -143095937.192666 129 154 174
-194554221.098906 67863541.397466 -145143526.376818 145 165 212
-148500290.203960 68905739.600933 -129469872.380709 87 102 151
-195323133.650578 108351996.628789 -208347380.330715 104 119 135
-187405339.837181 92415550.651369 -188369189.182875 61 66 105
-206714559.976733 120784366.615981 -230955245.641066 100 116 162
-173212334.661856 88336111.672165 -167660194.874996 66 75 95
-184822906.430699 83442155.063705 -178211271.900282 121 149 179
-184983238.689191 80857326.459528 -176520259.342729 100 117 138
-185316390.568586 80548006.764026 -176697910.772798 139 140 161
-184874681.085518 80521005.401762 -175518283.497552 95 114 151
-186008592.371861 95267020.708555 -187529089.434174 85 104 109
-185086943.860878 93364210.766969 -184925727.756954 67 66 68
-184968943.830343 75842139.046576 -172001816.449941 142 155 171
-186387907.088686 72419449.809471 -171164586.639982 128 150 192
-188040121.698663 64172448.763062 -167412658.107918 40 60 77
-184767864.714732 71229511.598618 -167682489.071178 179 193 205
-181950763.282290 92348544.614624 -178698167.046323 16 14 14
-186850922.014148 64337735.318721 -164964278.703911 158 163 184
-187368075.906613 62267429.997082 -163899371.786923 87 93 136
-187798856.134060 61891496.070357 -164134986.275756 46 57 89
-188929774.948494 59165105.629583 -163414938.005842 111 115 134
-183856429.526589 70585705.392692 -164293159.720372 109 106 108
-185470580.343229 68747267.561220 -164931728.022260 112 113 141
-188877637.612330 60926456.783675 -163736001.042039 171 160 138
-184688343.414642 69542367.995600 -164117868.434411 30 27 36
-186128810.145659 65901427.205808 -163173085.869476 66 74 91
-185739299.522459 66327733.991687 -162781159.370770 35 35 35
-186967979.693415 64890905.686230 -163416255.851330 149 164 180
-184327948.189269 71613231.344124 -164752622.316902 72 78 119
-185966931.103854 65976792.473977 -162578594.368611 30 31 45
-185275126.919441 68005804.305272 -162937756.594356 92 115 177
-186039194.522387 67440155.357423 -163344534.028551 132 134 169
-175788699.565115 85811971.156286 -162171744.341595 76 108 174
-175035077.328597 88224222.259873 -163052435.153488 59 71 141
-181571567.471732 78902556.400356 -165174144.000478 77 81 92
-188351814.104379 61325212.797761 -161258927.818096 165 174 211
-184055479.679470 70574033.940027 -161470899.843630 106 126 167
-185048975.879874 66621506.659667 -159373890.630020 140 165 199
-186337253.369974 65121352.496469 -159949606.179125 128 153 179
-186634443.847219 65598739.407996 -160159882.322671 139 163 199
-181631583.034632 87058225.978738 -170620060.707275 64 73 146
-174950606.852559 86083642.065229 -159153513.640478 63 71 78
-183725211.509782 72237546.173080 -161100739.410483 69 68 70
-177970829.057061 87559667.225997 -165109053.209527 23 25 56
-178413340.517915 86675309.186161 -164154362.130067 43 54 104
-174600054.681896 86017663.848761 -156213054.072895 10 11 39
-179211748.323489 82326949.677236 -159909700.284480 19 35 64
-186742811.963922 63532707.943674 -154924479.539844 161 185 221
-182503466.136137 78894628.973110 -162229696.852839 167 180 182
-187896320.886656 60477626.165435 -153809576.653778 125 144 179
-187704145.240959 62029183.570564 -154953299.277415 86 84 126
-182405244.523073 77690171.887423 -160680263.647502 78 83 92
-177910535.770600 83239341.121207 -158066123.850308 90 57 24
-188596048.706926 59752041.308981 -153588395.558869 85 103 134
-185651035.548675 65916731.828932 -153821488.684050 125 122 131
-186711966.702990 66645709.074476 -156265462.142177 117 119 119
-178235567.246967 78453485.622648 -152801976.317804 88 60 29
-187956707.455351 62596223.584286 -154059240.590268 187 190 188
-185672072.351360 69041954.177833 -155757697.004491 69 87 116
-179297749.855197 80252885.740017 -155403305.099702 93 58 25
-187536383.593685 62366170.200966 -151777784.657778 67 87 104
-187690044.383729 65454200.771704 -155239134.470906 3 9 62
-188388285.806909 62450371.631570 -152950794.593991 62 61 105
-189414944.133682 60321410.431057 -151588952.578868 96 104 144
-188759394.137340 61581462.794188 -151529234.477252 1 11 41
-189757899.381919 58588205.118018 -149773060.934055 177 180 184
-185047965.956263 75231457.945317 -158123871.928060 88 96 143
-188176620.769049 61474036.587623 -148820961.407709 130 151 179
-190301554.546870 59246677.495410 -150413389.898392 167 169 177
-178874059.427795 84687804.822572 -155988854.428445 91 51 22
-185069343.967276 74901829.441672 -156699638.552665 61 62 118
-181571148.346940 78553327.629511 -153415497.380013 108 77 44
-186993198.515330 68199868.860399 -151984195.139140 73 80 129
-188055088.017711 64090457.013413 -148948746.914042 109 124 156
-191749166.256560 56819459.588622 -147758674.890286 149 143 120
-188631948.352798 63466353.264309 -148913173.318657 125 146 168
-191315708.614484 58233336.075097 -147621824.923620 167 188 185
-187825621.385393 66883256.669860 -149954393.133174 106 120 192
-191541778.655558 59230560.148824 -147970189.798659 111 119 126
-189499455.314192 64228420.336421 -149468350.463915 80 95 128
-190855109.346297 59632182.944041 -146478325.915205 153 165 167
-190800317.329948 61176740.890998 -147380158.307960 85 94 121
-189967487.370386 64258474.324549 -148956388.037932 56 57 77
-189128558.738808 65105582.540023 -148247090.593475 105 118 150
-192712154.225120 57290847.341997 -144632817.533569 185 178 158
-191715581.834507 59911374.021018 -145784519.913140 70 82 106
-190571900.153158 63539094.964648 -148039071.736714 70 72 80
-189989179.371073 64592361.162869 -148074236.087568 68 65 61
-189213016.220581 67109872.192128 -149677811.072804 26 21 22
-182241746.730644 82021490.625769 -153482555.965414 93 59 35
-191206351.894754 62772240.842547 -146802270.688444 133 160 197
-190076754.478177 65222534.954871 -147262651.564957 74 78 102
-191643977.764119 61862088.411192 -145797338.159907 200 209 206
-187216675.640304 74799244.111979 -153212375.073812 105 118 180
-185630778.126046 80738668.097549 -156414944.645787 69 77 84
-189269821.918382 70608976.349875 -150499460.139965 106 116 156
-193528605.327919 58938609.686341 -143538372.266229 68 76 105
-192053004.856087 62002330.425598 -144298274.322534 166 184 191
-180157334.898538 90709702.612089 -157405495.570270 86 104 151
-188121451.297364 73483748.773048 -151214330.265165 129 145 182
-183361895.866811 89815438.243699 -160793488.316114 92 105 151
-192351359.141081 63991684.002199 -143370535.843387 120 120 156
-192571126.471143 63741104.874449 -141218589.742441 92 100 123
-184020878.442414 89135514.632713 -158880851.409661 126 143 170
-182517740.496851 92776788.244406 -160973126.383220 75 98 130
-181274623.425126 94154505.698906 -159859564.611730 76 90 142
-193738347.353209 65334250.517807 -144309822.340508 67 82 115
-191244622.502514 71394505.452598 -147379213.392057 71 86 132
-194425399.021794 68644205.423519 -145908718.574601 129 123 134
-189381299.788468 84127294.174259 -159883524.159596 138 154 153
-194146327.992608 68965800.467506 -143918449.327430 142 145 160
-195412115.640428 66958578.025894 -143590610.690673 120 162 229
-194805257.036144 67299963.309012 -142307475.931332 75 81 104
-187923697.589114 90662580.328787 -165910046.265592 78 97 154
-195363314.093997 67688166.390099 -143346682.762125 84 96 106
-194046815.333172 69942882.033790 -143663148.258979 121 133 169
-193105107.626810 77046285.263122 -154165851.874669 102 131 168
-195111480.120840 68887116.014390 -143619438.492269 53 59 54
-189633749.273435 86819735.693400 -162572213.414397 109 125 162
-195512825.970739 69328861.972271 -144946188.740498 9 11 29
-194774337.799689 69018604.454447 -141708719.225239 29 45 104
-201696892.515691 35900338.676817 -95301753.736893 44 27 24
-193617029.825015 76713334.743088 -152538856.770773 73 104 155
-189797898.053637 87488207.898676 -162865247.146580 73 81 98
-206222655.169979 24333727.739681 -81932231.506136 89 110 172
-189265073.711993 88791534.226009 -163556958.298199 87 107 164
-188904956.825639 88961260.334760 -162689354.460607 101 99 118
-191937169.463491 82695524.568406 -158797647.581815 90 93 108
-188845000.772178 89733101.924549 -163882554.536332 75 82 97
-186123361.180933 94816902.908725 -166245213.970441 86 96 156
-185642193.833622 95087123.179599 -165366154.895861 92 100 153
-189626114.483478 88052709.904368 -162667884.629254 69 71 105
-185315037.635048 95591682.146778 -165347789.067868 93 98 113
-191268475.842183 84339654.189913 -159877044.698235 104 98 99
-188433888.013568 90603255.712695 -164216434.311817 102 116 165
-187843289.360562 91786424.624356 -164887270.324877 79 68 71
-192589173.522249 81371013.896303 -157486751.547405 89 84 86
-188165210.039929 91175632.440051 -164370596.632045 52 54 65
-201094872.851323 44491483.537205 -105585594.217052 114 97 76
-205058304.211978 34363050.119941 -96040083.646533 79 88 155
-190718750.496933 85831735.267859 -160632967.833180 75 82 115
-190389334.068356 86524023.942562 -161078449.583331 98 97 123
-190057266.589217 87287945.976354 -161655883.014590 92 92 106
-187106529.362082 93213250.875217 -165110263.397160 71 82 144
-187440970.901102 92626001.892149 -164776000.779423 118 153 179
-186024514.342880 95031174.504119 -165585658.633167 50 56 63
-185697811.219945 95534319.083259 -165570384.717141 68 77 120
-188703227.318099 90199925.558081 -163276774.071668 65 70 109
-185535951.634649 95798168.288946 -165540557.201809 90 98 98
-211765549.716109 24464028.042537 -93866269.513136 96 107 139
-194328506.033812 75166528.156086 -148605380.591017 127 140 162
-192629231.324664 81569873.686233 -157016134.875156 106 106 112
-208295480.566980 29774432.603740 -94104344.685189 71 80 130
-189201916.163703 89223550.268998 -162500493.620459 79 85 114
-192276973.579710 83221320.575298 -159027266.304887 182 184 184
-190412680.418815 87347689.286227 -162026159.392372 69 70 74
-188652991.675804 90435965.264652 -162915463.967365 73 75 146
-187700162.680063 92266642.611962 -163911419.722419 64 72 112
-191292627.505280 84907828.213088 -159112654.819963 82 83 104
-191141495.428050 85248962.461681 -159241587.907214 71 67 73
-188552950.738085 90724805.628795 -162866163.822656 107 111 106
-185686188.502193 96090282.547300 -165720807.697523 146 149 153
-194151706.630657 78614457.144783 -154050533.273939 127 145 206
-187933305.133478 91926200.968022 -163431381.047958 94 91 87
-186791287.030847 93888947.110433 -164179819.853201 89 95 148
-203434208.521572 44929100.353365 -108439626.180124 130 131 127
-202972692.123178 46066180.610454 -109484932.367236 80 94 136
-191994114.528747 84280467.620513 -159289145.204154 92 100 117
-189764791.032139 88370097.064900 -160908220.095270 63 53 66
-186994701.292235 93616323.813716 -163758752.592787 73 74 118
-201799106.608992 49453134.926025 -112283086.651075 71 74 82
-192999838.781919 82095066.117990 -157275844.962592 56 61 70
-192658780.109055 82228057.452580 -156432766.514657 81 79 125
-190974976.979180 85870682.284485 -159105228.493657 93 95 106
-194781139.732302 75972515.251176 -149136242.302960 30 50 98
-192314740.178968 82984256.704346 -156860784.795465 85 102 158
-190151940.709846 87702147.198001 -160259836.145665 62 53 49
-186821558.494182 94400247.669665 -164652958.189608 60 73 89
-189013313.743115 89969425.209962 -161554746.826259 108 121 123
-186392284.135598 94691519.563494 -163802683.428058 160 165 168
-186049898.469256 95167998.024055 -163694368.975168 92 101 110
-191334493.149435 85354750.887186 -158117995.013998 90 87 89
-189764130.937789 88611449.492449 -160389828.869137 208 209 207
-188837420.887891 90958641.470096 -162623006.841365 60 73 129
-190701370.621988 87423806.974439 -160490483.099066 53 65 119
-203373565.833466 50417491.223864 -116619605.413345 80 91 121
-187893736.013638 92705059.652782 -163313995.760775 67 80 166
-206853431.023098 44108805.125204 -113311325.178088 83 89 148
-203335287.947408 48902903.613125 -112599719.177874 94 102 131
-191242671.406831 85747110.274982 -158122609.451838 59 62 46
-190013236.944304 88240143.069243 -159812068.791375 47 51 52
-187474926.728071 92944621.001267 -162359481.225615 71 89 160
